3
-0.70359408636821485494 1.5841750185167524645 1.894157454465788204
-0.6188291604845213012 1.5707430283019232498 1.7375047555839289171
-0.67221850245842507121 1.6572440741601257574 1.5606278038210963377
-0.52692898557626000056 1.6441561605806818136 1.4349984165827227578
-0.89287067438320422141 1.7361532440222398055 1.897161391070537162
3.9409460705582568529 0.89733095448662647531 -0.88629817097488361455
4.0523062112394088174 0.56255082889844654215 -0.98247462598645540766
4.2224294601145313521 0.31754417569321957693 -1.1167657651409756969
4.3826434661781279445 -0.0076958004606466918346 -1.2605777122007366664
4.4452217518466623503 -0.38442426950231800564 -1.3195281430403891232
4.2977329783409405906 0.61705205658712669603 -1.1694006551975195674
4.5158047589439904712 0.67496803270292715649 -1.3937585290954561668
4.1617885824245934856 0.035034183868026737285 -1.0743332537190657394
3.9352930307326245973 -0.085998967667347853139 -0.92446886156915830668
3.6972788862839904844 0.097651271910080814087 -0.80082249481133760405
3.9343927501757347542 -0.39027687639746733161 -0.91640308083448551724
4.1406746410990153962 -0.57917308329370231768 -1.043928648539015791
4.0543751528190954403 -0.96369031180620690069 -0.95449514505811217102
3.9029136025147797007 -0.69918946798552339406 -0.88024989342440740359
4.6297445238182044491 -0.52096885409851345639 -1.5484998188657750351
4.4865043436282228129 -0.6466658050865891072 -1.3594252735548559841
4.6279351749961916695 -0.8072034536725620768 -1.54958224742939632
4.4857466033917470227 -0.91160868327563371327 -1.3517537529226939519
-0.84443627183745029186 4.8315675212634765501 2.2132060056469771148
2.1064435231729286002 2.6570660360164448655 0.92033348228124867152
1.9822142405922762443 2.5982897261304240821 1.0451223825628708219
1.8941814369099192472 2.5848411239225299596 1.2319345081412074183
1.9672330922756162686 2.7268266147468982474 1.3737505558806029082
1.9523670520634255343 2.822247676949930284 1.5661847794677938861
1.8166451099424261173 2.7386542900123878042 1.7309332166362485506
1.7694179909268410444 2.5137557802844994193 1.3793886274935482916
1.5566987156048868179 2.3079775479628326096 1.3661453295156029686
1.695299301319633356 2.5044496383189591704 1.5713900211239006932
-1.3595342557944414263 0.40170406225504223796 -2.010691448420871108
-1.1879558135419912013 0.1843647034922187844 -2.2104350054075241339
-1.0201159492784528382 0.066762747602042982198 -2.5134987346755961468
-0.99474646785273934668 0.32243725656403321445 -2.8879959631774765327
-1.1986389413817861715 -0.087534418208182654397 -2.1403944556739435967
-1.3242498783539888851 -0.2313916281640703565 -1.9318615105960896816
-1.4597522285122257468 -0.36419089355089301341 -1.719335666459841816
-1.5911712758660498945 -0.65891549508202429397 -1.7483349389801632334
-1.7713436442666150583 -0.92445804394282515837 -1.8131396281571507956
-2.0446611213815013564 -1.1993232800462583221 -1.9513880641949461481
-1.9270870316612949136 -1.0894815756936189199 -1.5633120969958900215
-1.9341296790917690274 -0.95916540593061561104 -1.1739398469150068571
-1.5984814836417149397 -0.50052006983816832442 -1.5150556652109459232
-1.4056850498446555875 -0.093931989862010331627 -1.7069393832926575971
-1.4327519925663938505 0.21655294192823976163 -1.6891395271814646506
-1.5849522218218063951 -0.73907882411158409841 -2.0393480334269544763
-1.5120666461646006251 0.041799820634224216231 -1.4989002257693271325
-1.6486449512641183635 -0.066893266405389992246 -1.2730325972001768076
-1.2689387056872842852 -0.33373061052980151908 -2.1608613407880024049
-1.287300637138534487 -0.47746551992196256675 -2.3943731236303893439
-1.1185935442963375053 -0.38372030415719182717 -2.6936303052557892812
-1.0646127066140744777 -0.42875986557760148443 -3.1143523945520454888
-1.7770460675236066095 -0.18686539585844375022 -1.1029626421235920741
-1.9220981888462229659 -0.10428035099226438953 -0.93552197389994617982
-1.957686472333040939 0.12698705888413755472 -0.90274254457842695309
-1.9256038539485769157 -0.34031746179817939923 -0.94662403117777271788
-1.927198125415376051 -0.58204467188372199793 -0.98341532262398256847
-1.8101119584641556237 -0.7019371089872705749 -1.2189834719276753106
-1.9684062391772652045 -0.80986096392152462364 -0.9996020098668652043
-2.1243896466963358982 -0.96615232524371963407 -0.83809206491199739197
-2.2709518291022772196 -0.80793616757601405265 -0.69327442211309320275
-2.5046227768952218362 -0.72042819057420581785 -0.59616066749107565759
-2.2702669864285396351 -1.1507205580655963661 -0.7131773746514559198
-1.9775793030937203199 0.3363144304287628561 -0.89501569186832719005
-2.2389539526865309682 -0.58187144940423785044 -0.71025738655673675837
-2.0730545055049063308 -0.4655390124692539433 -0.82075406791296090514
-2.2402757143400147122 -0.35386968092007509146 -0.70913656782281175861
-2.2660123805908249928 -0.10830522942153056332 -0.69744394486718208626
-2.3041715734138161764 0.12389929230606687438 -0.68086945740081394884
-2.1093141157892278947 0.020219682108494421019 -0.78381747839657789356
-2.2898488377123324966 0.3373929794151906969 -0.68541450927545377603
-2.3019769227211415163 0.55264840560944150649 -0.67732671740769445634
-2.3019530488008346225 0.83650243648854016865 -0.67469531163986440347
-2.4904911177627564456 0.6577402261426882335 -0.60374548508943859382
-2.7095534799800975456 0.58975281642853749631 -0.57160759974200958666
-2.6907376641275635443 0.35595446639042860326 -0.58606216641387598454
-2.8735370222735219237 0.75162290927285591025 -0.55482976669867467567
-2.8441850235634702493 1.0802927101344701466 -0.51421017037774996439
-2.4789150127714516536 1.0413670109712676037 -0.58126036633153432831
-2.4174470211226273264 1.3995524249219930546 -0.59823780500045142805
-2.5023271298009759356 1.7605046654105014348 -0.5273565469970902253
-2.4535441706674863127 1.8326224668851662791 -0.88751361244545834417
-2.1116259003022457286 0.90986544064534791154 -0.83958767667789335754
-2.6524782068242118704 -0.8948690050165168941 -0.55112676667527960017
-2.9281002101239304025 -0.95212737153426352243 -0.53469596812133723951
-2.6180767394958213146 -1.1396987456819713813 -0.5291244181061471874
-2.6182688116899757169 -1.3890687609334690933 -0.49377337389709219373
-2.5753284944262464506 -1.6312313445759805131 -0.47339240827018735924
-2.5816569922973382489 -1.8853984224874020814 -0.43271996086513997426
-2.4342752050997638058 -1.7379876868023329539 -0.64897385182077194088
-2.320843722029614753 -1.5817885077491973256 -0.84779149994514479971
-2.2183848478216368072 -1.4497509316090704257 -1.0645972295951231512
-2.2789906740452443579 -1.5303517650466333944 -1.3217238167077947075
-2.2934884394370298466 -1.4900625802207960735 -1.6131904978699240782
-2.4195874570846047646 -1.4890269609683288721 -1.9947440461865120209
-2.7082518105662893859 -1.5001077099392439163 -2.430124236321264064
-2.4801730013645446604 -1.7397011799205275295 -1.3684595565954280616
-2.7702487894489502551 -1.9329307720528072778 -1.5247013293594715577
-2.5517913880936688997 -1.8940922529751957892 -1.1368592232419618693
-3.0629386893662391422 -0.71801069457924282524 -0.57559375321320205288
-2.4299929203935004551 -1.7943609054532612124 -0.88394482173442301409
-2.4365780866431152596 -1.2439904610536620666 -2.7519492759579677887
-2.0890638736271394116 -1.2607080669415902108 -1.1858239791928657514
-3.0744655216969025702 -1.1667928071452500216 -0.51911116339361373928
-3.0313980022589235297 -1.4081525871077491541 -0.46794261978711121364
-3.1602588825316684229 -1.6305002846499936364 -0.43934486522893162475
-3.4342121199787190022 -1.6518283127287265444 -0.51764645869708081349
-3.6028247258218262239 -1.3693546027260288245 -0.64501467499024800478
-3.5385855845186671154 -1.9433422360078562718 -0.48855019562767454389
-3.8387291278642621251 -2.023127482645876718 -0.64118478630134911889
-3.3584947863422356384 -2.1791798629410994437 -0.3347627221100186734
-3.9145497321577584771 -1.4789939057878693784 -0.79661861590332161409
-4.2542450685854866776 -1.3847635044598192167 -1.0757545349173491811
-4.4905480078339774508 -1.8552254624654664905 -1.4049749635941715109
-4.5694375009972647561 -1.3555793474808641719 -1.4767896401840141518
-4.1625091159129761209 -2.2459465375531948439 -0.89200103014125009526
-4.1026987411028468244 -2.6375975183495126153 -1.1941748462435286537
-3.3180168365984092915 -1.1735651945473013491 -0.57266326943863399279
-3.5293057598621722093 -0.93096155406641745156 -0.67808649413788502081
-3.8241441732010210686 -0.73693709482890457085 -0.83330617331479184262
-4.1728899854135477199 -0.59818355159654990061 -1.0672151538896452738
-4.1797595255872055375 -0.1717179034936107962 -1.0865834274077614818
-4.3400901732982353209 0.19501870688795719389 -1.2195127611148839364
-4.4833266009885130998 -0.58957111632423919723 -1.3570635455519408641
-3.9355431230798920694 -2.3393356819691870641 -0.64398198213565682746
-3.7885977924513216664 -2.5949795526674503954 -0.45484091235158807809
-3.0137595125545479924 -1.8126545703774246121 -0.36288603819858306077
-2.6298885870712620516 -2.0614618186118511822 -0.94594313346547431731
-2.6423493195927707511 -2.1815979017778270865 -0.72003696241829751035
-2.68322708929149778 -2.3529725769428857518 -0.53825711371491813395
-4.598712386785252626 -0.91963599042003263406 -1.5059524071822647517
-4.7369745552507671604 -1.1725440732478973338 -1.860134890093077642
-4.6752713787092678999 -0.39312186222938089175 -1.6184380423149578032
-4.740212352249365324 0.092407377881584054635 -1.7294525025632982995
-4.8369691067615745439 -0.38213725460303099579 -1.9828121206646645014
-4.8810826073386861523 -0.4478017312632817104 -2.3735163837714909896
-4.8709803887372062903 -0.13363457867298622617 -2.6364298919609878702
-4.8900296333235226953 0.23137056657134288939 -2.4825205619906904886
-4.8643960386658733341 0.30312821333152334402 -2.0812140401251402189
-4.8461927185697648568 0.62131219066506915283 -2.5019159215046977707
-4.687254578150152895 0.80115215380849180704 -2.8339713365700172076
-4.7807696457477062424 1.0081328622705565401 -2.3898152589096026688
-4.8416892529572717052 -0.75145928932551564472 -2.1550968703811652638
-4.760725750352512442 -1.1440429352669536645 -2.2776516548887313363
-4.7670148167467703004 0.52940559409402143665 -1.801174637824641156
-4.6650099739247856689 0.8385451719158060202 -1.6136984444150792584
-4.4616300262510213415 0.79465638788401293802 -1.3267533224770877709
-4.8109888701349516893 -0.50657772020414626457 -2.7224512370626685609
-4.6672514872501551508 -0.81104596575165277539 -2.8635255117408724423
-4.5805339670219442638 -0.58096536046578117762 -3.1317644243776943114
-4.512698442237018881 -0.22960267272596826538 -3.3394484430021496024
-4.3000862057383972825 -0.66060033927300509937 -3.3995705128529691841
-4.6660488626608920271 0.086035258400734768158 -3.1429687996677162509
-4.5486291582816056334 0.4718197460071020255 -3.2224774774020672474
-4.1229891887492113867 -0.9693796319483360957 -3.3161493043915570844
-4.1948776338373914285 -1.2523423403733422443 -3.0029712609293208736
-3.7563910031549845314 -1.1732320388169792391 -3.2828494683074351812
-3.324415300760592995 -1.3468872178115123273 -3.080492954877051659
-4.1230072403356734512 -1.5351741588049747644 -2.7274978739905120229
-4.3500950361118029264 -1.6863994386976943751 -2.4025303991003652548
-4.2542221365279111467 -2.03564165438959499 -2.0145472610056343044
-3.7489953066827705896 -1.6762872077509998192 -2.6293820865306836154
-4.5095171506504989622 -1.1070121641573260618 -2.8604806087512724133
-4.6759961936650524805 -1.1196872676226155008 -2.5863127301185344642
-2.818859837026202797 -1.4773079379010451984 -0.4434602805722857588
-2.4479095769338470312 -1.2742131430872736253 -0.57986136604884086498
-2.3076730316787541497 -1.3537614038785579229 -0.70889216054998871464
-2.6397479162060633051 -0.53187027556314414589 -0.58223834271087859804
-2.597959144047492952 -0.26360752705632145565 -0.59946207462270340027
-3.5308893286893434649 -1.0156418769463557705 -3.5219775138966564754
-3.3569598432518530373 -0.85259937023722387472 -3.7455008214943430467
-3.0974495086286646384 -0.77764459652553385993 -3.8791257510980305945
-2.8804377235617937281 -0.90681630584140171525 -3.7115765504480946468
-2.8985517890279615116 -1.0535136987426838573 -3.4748096361851312786
-3.1096365245375867659 -1.2001451989047602353 -3.2756153932983909094
-3.0272797380632301412 -1.3348908248559969714 -3.0153500981604279829
-2.7568333587705748933 -1.3575507098783856641 -2.8042940976816157495
-3.402596199814400979 -1.1886437057066312484 -3.3184900819908178526
-2.6237029552858084358 -0.84250150169001747358 -3.7799429385308167539
-2.5097027699356386776 -0.68642118622485392976 -4.023395178464403088
-3.0132857210690939809 -0.61159986063759474995 -4.0764284074311225581
-3.5700783080472429099 -1.3024203805754286378 -3.1546753798962909876
-3.5300612946879317278 -1.4640329847484998549 -2.9268825939581999407
-4.0134129594116814133 -1.8035392505555456477 -2.4256620526231191803
-3.9806380558135785463 -1.9943221754015441061 -2.1725714244393956598
-3.6281680144650936271 -2.1628101357462305998 -1.8887622301654787282
-3.9731146536582682138 -2.1965561319116018169 -1.8911861427447962392
-3.7824744727132877387 -2.3855006440099377762 -1.6098819305250464673
-3.2565166018820455029 -2.1042528152579529355 -1.7683364033356072653
-3.3278262772229649791 -1.9228461286338598413 -2.1252906898017811521
-4.2249004156743872329 -1.8793924591001911484 -2.2441672141934962958
-4.4404035342438819001 -1.8534279233808772513 -2.0841747412458699884
-4.5703795617436853149 -1.811144317283894134 -1.7522054841208105636
-4.4301740280136066019 -2.1130745016445957596 -1.6371799518139529273
-4.3613952999876488548 -2.2350373328395765071 -1.2511244100421297087
-4.4459473437395304884 -1.9791523271152224872 -1.8762092543228077179
-4.3000429709728509309 -2.1435848811612889797 -1.8204130995833114337
-2.1138584162821696388 1.1235943295883041859 -0.91766950737789942938
-2.2239606737670492009 1.3313274614240362403 -0.83908896190939197268
-2.3219886371908202705 1.5223921586357433977 -0.76415475076473482474
-2.4063440411999805768 -0.27267499742548223507 -0.6423216007535642591
-3.1220683428838680307 -2.2794544508679530637 -0.20943605321096292471
-3.0697294908844510175 -2.4915955208331688198 -0.083725164131906254505
-2.9753613723044303185 -1.5850111237650328366 -0.42152046588329333821
-2.7904867643396302768 -0.59620885196241213411 -4.13333182130917276
-2.024929220785895545 -0.99773143154930443721 -1.0042923757151214215
-4.3116104931489367402 0.48594228069102823886 -3.4763991159786602481
-4.2460955054265134834 0.74831267728085726354 -3.3922550164835261199
-4.6372044849978228953 -1.3390703350166537344 -2.4260542297297584824
-4.6971956420662381859 -1.3897749687457057188 -2.1555948646078886277
-4.6889775646213376348 -1.4472488055733525592 -1.8819669067758413306
-4.4879873527704354785 -1.5117395738961227902 -2.4687064801970990402
-4.3013089626590277348 -1.5640528673819065197 -2.5885191342718130159
-4.5253877571958760484 -1.622645646818584142 -2.2762471348496355894
-4.3014392919746100574 -1.4248739388057078958 -2.7466312117786668701
-4.4115747592109579855 -1.2727140580951195048 -2.8113178277684256479
-4.3598398526579664747 -1.1674702195211401623 -2.9610518604911790774
-4.2461071647574115673 -1.0698767249490581666 -3.1425404689234301969
-4.0046562057133634482 -1.1823768284147995189 -3.1797833201627354605
-4.1718893996621480014 -1.6989299552306329488 -2.5036623278213299137
-3.9727205372782701254 -1.6745378755381905567 -2.6054692659904810093
-3.8770385679024483849 -1.5583307185964303532 -2.7773747604026928215
-4.6678048152748337074 -1.316617410036682978 -1.6871757071566877428
-4.6129496952623503248 -1.5746218257452977429 -1.6288071727121513632
-4.6738265974944877001 -1.0855008857802426192 -1.6525662420017210863
-2.7628555578033204831 -1.9405729693717765905 -0.32391630152461792225
-2.7740059484323986716 -2.1253883625669489632 -0.24833052951695488986
-2.6427562347617339356 -2.3305309420588660174 -0.22469580962974192162
-2.9330194518765964062 -2.2069076896576960145 -0.20370689347074494302
-4.2782975059153933728 0.6463277094083262897 -1.1509562192536846315
-2.4145395358221906079 1.7227197375890968001 -1.1703298042849974436
-2.504872007165666048 1.7135785686656466176 -1.5188360849610231806
-2.7519336551803763591 1.9095006478029721286 -1.5449259843899540989
-2.3448776945056626353 1.517766317514997132 -1.6931292734068816852
-4.4170264535265486572 1.0753125281286295412 -1.2654841554893654365
-4.3443880331658730753 1.3339121800397271134 -1.171108865790342124
-4.3137561490016267385 1.6752495149704329513 -1.1135028791055028297
-4.2851314332583889666 1.9853792220964743276 -1.0614654590072651885
-4.2137719762984549021 2.2864734578458878467 -0.95960034819666772954
-4.3701945565502322566 2.2066036644607449624 -1.2561312415530083708
-4.2295181838605886426 2.3587553570066148723 -1.5496947415857373898
-3.8445496573607913504 2.4060985840597055585 -1.5917429022769531421
-4.4526959889878883203 2.0421115709512553948 -1.734414455951129419
-4.2725688894021578434 1.9093480322366678248 -2.1744763065848524697
-4.1731731340194002655 2.5735573357432977026 -0.94888138178133851763
-4.0269385288533268152 2.6767500526469936162 -1.1842695809975809507
-3.7776088611703557696 2.5862368463261211637 -1.3267342103407104847
-4.0602494418018277855 2.5219458572027062537 -1.4083163300926908601
-4.007675378538404054 2.8472581905680085512 -0.88507819470047488508
-3.9395493323853827405 2.8606276807345385471 -0.5741500151377457728
-3.8308126606170112005 2.6072455590836800532 -0.48805390989931052292
-3.8664346105238940332 2.2492883210704079922 -0.60785106553430034992
-3.5580572213637218226 2.6277554621431509219 -1.1844110566982499755
-3.2556784957400601854 2.4935788881396603323 -1.1549828736845879629
-4.5588724566675695726 0.98699071364182089372 -1.4473167438493261816
-4.6651320658231156813 1.063954019254043093 -1.631464334873225841
-4.652409644609675432 1.361987589292429357 -1.6587651968632497468
-4.5533406019964601796 1.6397126807969035767 -1.4890358188587606847
-4.7355128238580457278 0.93911418898739384975 -1.7760680750418802454
-4.7997653090868750425 0.96638927179797218248 -2.0395107767395561638
-4.7461392549583312217 0.73282226018906349019 -1.771590912890290026
-4.6672230469752227222 0.63242590722896130373 -1.6097311183983518124
-4.687956971548107532 0.43156031662956922945 -1.6402821165723660002
-4.5812564289075865531 0.18793930949870168989 -1.4810840412358972085
-4.774722420198823869 0.30302672623328374968 -1.8054360808661700233
-4.8298636580055296363 0.12358865371478745809 -1.9400404629893235331
-4.8017786996247355802 -0.13795545269030540236 -1.8640374156940675565
-4.754272610980960323 1.2213298801748950773 -2.081197147977410733
-4.6851770199131355099 1.4670637030929158939 -2.0231748476773412371
-4.5124967936114304123 1.6767487504954845523 -2.2240112352816194807
-4.8091902540173130376 0.6584118431709558017 -1.9369561258480998411
-4.852066784310646419 0.5087296446237611347 -2.0721000022774251903
-4.8841865371234884918 0.41775529852972748124 -2.3083338253140066598
-4.4469373146424988619 1.5309016702818771805 -1.2889312585382799448
-3.8249893786251001337 1.9368382354620257146 -0.65148923549464221594
-4.4412403706228893441 2.116985772237768515 -1.4875980058218642998
-4.5241622586626970559 1.8989668301051114696 -1.5526421022060581389
-4.5556337825359261018 1.8453407078752910309 -1.7685438360637546484
-4.42745753882036297 1.9416191419040369492 -1.9706887917732445192
-4.2135516481873391825 2.0703789781746522181 -1.9918101201024034363
-3.9799111009381125115 1.9945701550601948604 -2.1723127225276033236
-4.0900943310805022435 1.8327029316495813127 -2.3652275188331306488
-3.9594723931582329612 1.6819619504732323811 -2.5987453982714221468
-4.1010425487219386298 1.4933720283227225334 -2.7873209033397596812
-4.3675697533269373096 1.3884123055584958184 -2.7324027506757335715
-4.5110661157131035637 1.4636960958825675494 -2.4946277302910813134
-4.6552669622711722042 1.2506305932604637743 -2.4906301293612989056
-4.5523134189313259057 1.7859455148584346684 -1.9593649179845487041
-4.3178452794447981233 1.7483587947353118608 -2.3511539958268619088
-4.2849074357051613049 2.1623439819916603355 -1.8066629670295211163
-4.7015426951915069154 1.0585632812866567765 -2.5900575289878102758
-4.7868317216609090892 0.84217690575455017576 -2.5561540643590099364
-4.8372906182643031769 0.78995234819245507829 -2.3361439157974479564
-4.7848147646162058066 0.68326749383573426311 -2.6917484963884588112
-4.7289509481178289008 0.59930899365690404323 -2.876447343017665137
-4.5828504033224817249 0.71649111709968782424 -3.0554317454355386374
-4.6853355962534690704 0.42974751106404368572 -3.0347315079729573206
-4.5216145270610255125 0.96015708434426316753 -2.9681904836281076676
-4.755122002037477813 0.21369381721143929087 -2.9626523857690996167
-4.8465844870351206808 0.17587050994078812227 -2.7276145218801532977
-4.7989360407930101715 -0.042002590195078466639 -2.8824918187067800623
-4.6267778854756516083 0.2869616768262648332 -3.1724481219352114181
-4.3425567488470981914 1.0519526233335789733 -3.0799697852594807301
-4.4331865963572063549 1.1443628296137553502 -2.9122622948725820358
-4.8942092553102565233 0.20769020966263695982 -2.2701318676989887813
-4.8753848786231746004 0.12819434573602922489 -2.1120244793205666944
-4.8572717999889940543 -0.04866710626724090466 -2.0294769881327878736
-4.5970182603105040897 1.6963388584614265131 -1.6624202837263919452
-4.6414454556635247329 1.5314363248281728236 -1.706218724598486558
-4.6932880554613385371 1.4051937476656546355 -1.841458296505501524
-4.3732157301160770047 2.1832847597151792129 -1.6458987052545401841
-4.3584774144546187813 2.263296785681742751 -1.4984053936989676359
-4.2928163488191088959 2.3904532117698265026 -1.3732514984508576994
-3.2645946633017262073 2.3453772625125748341 -1.3845734585519158255
-3.453252058542658709 2.2383753320524930608 -1.6896538929085624936
-3.0930198368248911223 2.1650360631699148151 -1.5118425055059574458
-3.2855793573018425846 2.0335049718229600835 -1.9099108607108759017
-3.7098822908013202593 1.6744649092020791326 -2.6313719704170379643
-4.0870589966454309305 -0.93878696373798797836 -0.97992897958198665886
-2.5604954304159792677 -2.074081225925354488 -0.55929234170201147514
-3.484032419525958435 3.1381748764187351597 -0.50992654723697938834
-3.7346188360889174263 3.2226651560028498622 -0.35789640564191033123
-3.6356223382223049612 3.090343118979379966 -0.16749389754793592155
-2.791860536095487344 -0.37016468033456495501 -0.58113187623296536088
-2.7922763369007244094 -0.13938201894913465617 -0.58839679458631011233
-2.6872999182312158339 0.049738820812735826116 -0.59352941244099077789
-2.5234921402323129414 0.20528712961274386828 -0.61367024511757040095
-0.48493951572849192111 -1.7032033657803746785 4.2375858673273523181
-0.16593056065420563883 -4.8121699112283957689 1.8916591334571148941
0.093504046218758726794 -4.7959799615981228982 1.8489128628992574921
0.24686874216108600777 -4.863324349088425258 2.0677493709009642231
-0.12007944770893241859 -4.7217342083749134218 1.6951540617941540656
4.7245688478586878034 -0.84183158772254240709 -1.7342954713336371508
-0.25199147982391989498 -1.3911926087728605506 1.7953279752536388525
-0.35238619382653724177 -1.4742913503161088062 1.6773584845947973054
-0.5625951836054906563 -1.570557032532340358 1.6506382723809138735
-0.67696792804790917319 -1.5677969201484327488 1.8823360927838308498
-0.65137732315218666024 -1.680456022854544651 1.4688921318478189715
-0.86186033971101827511 -1.7868369277380975468 1.4797097543932826724
-0.95464354400325102112 -1.8097241196530717833 1.687468543320445713
-0.87322830656727723486 -1.7184038052161063614 1.9035283525510680036
-0.018018196745309311008 -1.5451756660105733232 4.8009491716443166709
-0.12223538958133918497 -1.4789757927562550144 4.7739915568136259694
-0.20240795725329815968 -1.543182279329268658 4.6999114907439150102
-0.085175871729574470503 -1.3720217219931474251 4.8094180617020212409
-0.14070579110932635025 -1.2545489266236731218 4.7837709997818720353
-0.031533604110118552966 -1.1275096370310868643 4.8606958463916720703
-0.22982456699839337588 -1.2418000107987574587 4.6728105878221919411
-0.25409214982951466855 -1.096394147146701803 4.6141362556212239809
-0.23875885578918210062 -0.92998064958502080213 4.6202100469343498901
-0.27661874877035685927 -0.82973591743459795822 4.470429709867674184
0.018174673216951976046 -1.31144880046083534 4.8383135973867066326
-0.32621800486023960763 -0.9301718887847665318 4.3231175414471678664
-0.35282481728613279692 -1.1124295439602029933 4.341418201476797023
0.10983626651798375495 -1.3691077202871888563 4.7958984536317892378
-0.12144006014299608964 -0.98296166612766799897 4.8201351261747662491
-0.23015815732322911225 -0.73159686440680093966 4.5966821414035461402
-0.07593382992128597242 -0.82134717139276036679 4.8698032867851681615
-0.1345842351613157073 -0.65399032848602889345 4.8085279187680791679
-0.047478458985957372462 -0.48719024789744236337 4.9070243859987439095
-0.11818605065638251861 -0.27412179433675404328 4.828189443762098243
0.065095602409912495245 -0.096017536630733146819 4.9021265177169883742
-0.25567001929501004254 -1.3607388826088615552 4.6362125509279445978
-0.32711010836579501593 -1.4226637037512503969 4.5137764293401385629
-0.36526819320595682594 -1.3028129060051472088 4.3938194921285695926
-0.36292000195845830479 -1.5713045437716035568 4.4664387879598530517
-0.31631574939776851974 -1.679582485466180275 4.5524863272599427333
0.11155700717324187887 -1.0791691643680501045 4.8232810440744460223
0.21270737195237579553 -1.1478649018393951575 4.6967552429688774751
0.1703276908788306232 -0.92395524897620473492 4.7576287859911321476
4.6309401722545384672 0.84194992873547847001 -1.5553111934190075871
4.7497414416160017581 0.83840634121157475711 -1.7952640257691925285
4.7663117622333510681 1.0723495325374501341 -1.9301427502678218939
4.5658023121719679693 1.0571969884117713434 -1.458103487700969314
4.706986458622911762 1.282964531584198653 -1.8027740472152382623
4.6321100292010815025 1.4565616736800732767 -1.6343825799021041156
4.5594433239847971251 1.6667551158158095959 -1.512721891112154049
4.6192556439641911936 1.2475107581834272708 -1.5598320839424046902
4.6173288596717627641 1.6516597615949244471 -1.7161748947449879665
4.5878575977054678603 1.732375425604348651 -1.9315866628918232362
4.6261421465772363248 1.5689612728400714747 -2.1215475317788938803
4.4892268071764727111 1.9443154484043383423 -1.8347383364728511168
4.3446708350060356807 2.2150020337580174079 -1.6421846859970381516
4.3262422037116525786 2.0236779153546393673 -1.972619067837529494
4.1073380666890901836 1.9672322678051405997 -2.1798927708340478659
4.6743501306406516349 1.3952295916975956391 -2.2480608116365434768
4.7077242267135295251 1.208533490999732285 -2.4059519407537752755
4.299471520649064793 2.1443227661912880322 -1.8198601940225833662
4.1139872542821587231 2.2934013451505816938 -1.7233327738915262817
3.8542124955098562289 2.2198964584627347563 -1.8575260272275899709
3.7979154303613702481 2.3869455148128468913 -1.6110773054075724353
3.779168262304787973 2.6037393826259438434 -1.3029178302980615189
3.5176114171163099797 2.3928193995971724917 -1.4944861910096294277
3.3220407486022809351 2.2273253529131284978 -1.6176948606149961218
3.3392173904188360289 2.0588662191302695703 -1.9045902714041045289
4.7119769867677385733 1.0663045098292098789 -2.5568424562757647855
4.2871518951034310874 1.9321475711166957723 -2.1333256111136624789
4.3781646362948070106 1.7601989146935479447 -2.2835118124317990151
4.3478028240256767489 1.6189158209854941362 -2.4869273387077535098
4.0660602913655337076 1.5905042807182079301 -2.6839609648058604385
4.4798961756642023957 1.4314507070376307762 -2.5708030319840435851
4.2821117059632776147 1.4989465227279445969 -2.6776951091215468459
4.4278882872711715635 1.3080851938388176059 -2.7593488617420787179
4.5386541039567172007 1.1004643677961010173 -2.8295926996907874162
4.3656189114204613233 1.1892028696742944494 -2.9354455479160210807
4.1829950779888358525 1.2276176868827934907 -3.0356963152592082444
4.1876348407483634517 2.0340178480414845552 -2.0559662504048596965
3.9865376081229340066 2.0781893769162684826 -2.0554449430425782985
3.9187030804823312913 1.9775646851895665179 -2.2018931681092532848
3.7627558337377919884 1.8716209791695037623 -2.3501906008675081949
4.0236827855157608624 1.8744546960669172808 -2.328311497971660593
3.9648435574481939447 1.7493763444275767238 -2.5083608520424127697
3.5699015324182568065 1.7995924013146704645 -2.425800783179393072
3.5180959394010997698 1.9209936842197430362 -2.2203683429637268709
3.5432575217170101389 2.0522051421048201902 -2.0247515556895430144
3.2938422285311070858 1.892807067973021784 -2.1557910878114161513
3.8808489315239080852 1.6499089148070005262 -2.6556235457125718646
3.643795099520175107 1.5970892649848320577 -2.7399220178855840935
3.9173159716197298863 1.5174419944679444772 -2.8212817099450648861
3.5150392225623692255 1.4840313444335651027 -2.8961511420381076398
3.2207745327514687439 1.4262202667171446357 -2.9271293295915148391
3.5889534758796672875 1.3548885320819896716 -3.0821064642994175919
3.7928414920895554552 1.3303959802905489518 -3.0852224135745096589
4.0957659713511578303 1.4680107823052193083 -2.819620546214989254
3.9796293248861296377 1.3909718415278606862 -2.9573836060514722135
3.3937475644995753754 1.3865898392940851913 -3.0292024275640776487
3.1967520826072495232 1.3033169849209305102 -3.125409833994488018
-0.98449130401455253736 2.4261377639223593583 3.4110653787500821998
1.0364884639882765427 0.030999023539585994491 -2.471567815727746531
1.111436865004676422 -0.087711060297772605598 -2.3283323555880377498
-2.635563881326097313 2.0614247468763484683 -0.96183809614393689369
-2.8103430687217256789 2.1496249491229151296 -1.1544883657884781325
-2.898252180109976095 2.1046292172967766554 -1.3777022072207660841
2.4364732747363468945 -2.6610688041177632535 0.37133848306531136441
2.3608839768750859989 1.5680148821648309809 -1.5581082964458661255
-4.6321382248847076113 -0.048659225042962953034 -1.5509376614457188737
4.7720172524266022407 -0.30157931344526212047 -1.7993194082024557279
4.8197519952036920188 -0.47162175721165783271 -1.9377850885979344131
-2.4713998812226893875 0.84271988929787333689 -0.59812751879112679987
-3.9921347854886715112 -1.3321396683084840706 -3.0210014857718121561
4.397810791215163384 -1.8606382677788786406 -2.1283653656165526513
4.3486333035148367898 -1.7701602572034975669 -2.2978875828925287017
1.0007955200048079814 1.8363464351328442348 1.8398822015106188754
0.99454593597405371863 -0.091268530421137986086 -2.575648309898901811
1.0276062770065934604 -0.25564503853853498549 -2.661918492455701557
0.9226439614216737084 -0.10177617150534030988 -2.7259302317166471674
0.85874450724135620305 -0.11449488681198372042 -2.8578119049975665433
0.77254426292699984735 -0.13276803104622969531 -3.0314655423990686245
0.63930250175038472182 -0.11716984393434722034 -3.2317030757341131952
0.87243904698340601911 -0.2230042885936243946 -2.9623743710946279784
0.98103863754340081549 -0.32694378709701454877 -2.9401028726292950388
0.9313362015102705227 -0.32712997773982099847 -3.0847160379532794217
1.0224072786470352892 -0.41843915940289005961 -3.2594142522973910125
1.1579055919943035402 -0.49416531656466339273 -3.4142427946277527084
1.3777817457061452 -0.59426355850812218051 -3.4208685258665694207
0.72177072924212470895 0.025853275498376456637 -3.0519366287835478779
0.80405794320624701665 0.14964314751084567545 -2.992713405121032455
0.88095300160840406267 0.14918595647958490802 -2.8451405618787282137
0.63277704360446174192 0.040663436407807798667 -3.1885880599062370599
0.64604391816014938854 0.18335094456682773933 -3.3187249959427003176
0.84238307581555149639 0.25079738530508061123 -3.0853156620899819806
0.79599020638562723029 0.25592342231003933906 -3.2021233383404066331
0.8406457669243299069 0.32786787168944020454 -3.367404723760343277
0.97384483011730893498 0.39596224347918768105 -3.3133195482026529533
1.1259685514141841711 0.47913342745226988884 -3.387422243992300519
1.3688520250071416484 0.60619735728791779295 -3.2408052733112255872
1.6971135021872918447 0.73772814776252404467 -3.379169661097809918
1.1249821075623269717 0.47275129490330619619 -3.5904308934612663151
0.95005483606072171909 0.40061371898099240596 -3.679831356041871615
1.2500479914479221133 0.54358272178463085123 -3.0625273666030299324
0.87705468062017510888 0.020430491082485978394 -2.7837751293438048883
0.87203104792963814784 -0.33895784011748913978 -3.3257815914754988995
0.72708902485476600841 -0.24317659789051884744 -3.3138091109782319421
0.59803932097966394643 -0.17317731101144018258 -3.3745405707604660961
0.49922241358551056045 -0.17980356338342814992 -3.5287491417728156229
0.40277766145080839966 -0.055716781234357179442 -3.4624104555220149848
0.27052518624041022033 0.024400058660898341772 -3.5490784197448634885
0.16345831543491751159 -0.090176719233950805577 -3.6478155180378664113
0.016026382872386672057 -0.1589693348598993361 -3.8102768104167470398
-0.025350147458162965858 -0.21287518946088290761 -4.0724183564290772352
-0.2290679176825894392 -0.14473796234127211946 -3.7055116338837321699
0.42487633383633505169 0.099880115324273960331 -3.4786573585975020251
0.55782421423246031367 0.19670938000910301313 -3.4877452644174224972
0.45492915196856859028 -0.21151790433800271574 -3.6834999774206687029
0.37911579963265612525 -0.225583369611599166 -3.8568766461848840166
0.36349818351713203413 -0.2441834053818179584 -4.0669961002491881175
0.40447828951516623386 -0.24648037977126033282 -4.3093859661671354289
0.1702914431753070057 -0.22427383909124626316 -4.132441801644731072
0.58954348659029354174 -0.25178169257939392311 -3.6268140905808667895
0.81712409253785911467 -0.34895667360225945952 -3.6679870370430158744
0.78640445565499961234 -0.34011471920022662285 -3.9515245060578472192
0.26905196057878311144 -0.17127100870691647216 -3.7459785175402511292
2.5790842315411954822 -3.1799064674353205717 0.96329630919165176728
4.8030230993935463246 0.99673605810822230033 -2.1326532408556659881
4.8342142466258630762 0.8280568143340915066 -2.2597490929159018691
4.8572602239175273198 0.63449366663353634621 -2.1807070449843246607
4.7766078330013277409 1.0806552366782919972 -2.2937403292902023288
-2.9620167651378315199 2.7943622228542914776 0.18273604435227433496
3.1200663609293588507 3.8028849998209657279 0.54475295895808939495
0.021424419305285463677 -1.2121575172794514241 4.8517497176700254968
-0.073208236169387624903 -1.2103085047749326808 4.8357485141162088738
-0.11429441062015310848 -1.1283730308778414653 4.8171286939147313078
0.053103458672226017123 -1.1331631284553076444 4.8535243724333501092
0.017802375109995979829 -1.0452842564983630957 4.8728801877521057406
-0.069784680853392816458 -1.0469245586744773124 4.8551781666159286033
-0.050415573818591290223 -0.95905722819532346346 4.8730407088387215353
-0.011693133592742281993 -0.88020370823430216234 4.890935362372030859
0.10702133283402992525 -0.83964617205907243758 4.8416192640846338335
0.028532621045336405835 -0.76553477794214530583 4.8978501505217399981
-0.045860812189051504417 -0.66295488367237109806 4.8985574072441577798
0.015955684098256504855 -0.57504910960546140597 4.914268766564772406
0.13027604552944654914 -0.51135326211094267457 4.8123179119968275685
0.06409808856714055425 -0.47466891035324226822 4.895998370968047908
-0.0051282401331265064018 -0.33853970607556055361 4.9272269147243115128
0.073855446230687654685 -0.23232486167835458835 4.8920395076711056248
0.15011003743079862072 -0.14819132113067354228 4.7511697361221081337
0.13953670102654477936 0.072725841609691199707 4.7772949835386961936
-0.056024970548476965559 -0.17315858547153223368 4.9095427855093909386
0.13799521628344882385 0.2863700861267143849 4.788031817979171656
-0.075021620618300075001 -0.011019388617884682408 4.8918431473727830294
0.17435540157426862584 -0.29578494195102150721 4.6880398407247430015
-0.072865615128888297503 -0.57445921755013740206 4.8850536640338511063
-0.12057442358268666283 -0.49619756281076360382 4.8282928387710555285
-0.13964229885243031881 -0.38495997569356132928 4.7891271731127380562
-0.18525355203710550112 -0.26020665621800853629 4.6428705020501181977
-0.18200406049130371522 -0.37867494630152920276 4.6742527947572218849
-0.21954287133646205321 -0.51249170681628131163 4.5646867340241668032
-0.093302554348778390936 -0.41362682159715580266 4.8673394471138804462
-0.039119726087320283447 0.95982261866634643876 4.8771735319916684759
0.09090317510816178781 -0.56809350823172788392 4.8676867715275822235
0.15255006796007020142 -0.63102165449590641444 4.7762809171157245558
0.18656146389541952701 -0.52992398145468588844 4.6851810677547236494
-0.51361102332637575962 4.5622466378722776881 3.1873355666919152007
4.6060819396729417718 -0.1841449874092205008 -3.2233226869348632349
-0.78568607663162082222 -4.8382838164026642502 2.332814337804578475
1.4963335819134115923 0.41856389587709513789 -4.3256134041108129651
1.6357676573350996563 0.55620598331438686479 -4.0093561224378069241
1.73125135901109517 0.47419946460813650058 -4.2709796941264404069
2.3240750332055681859 1.6173928811530438043 -0.9927176108997047832
2.3186587652561874151 1.5853256688304344646 -1.2748799996224666753
2.4231518647846717052 1.7832176991105943564 -0.82012980645436706073
2.5804521501935369088 2.0284583998087954981 -0.86766966574762038888
2.626622504562501792 2.2105014438328725035 -0.60311516936161968516
2.6871232572223764379 2.0031045816504531309 -0.32780813012078385826
2.9896349741929935107 1.8039598089000101755 -0.36272475773436418933
2.6631690190305725707 1.6802541688595951097 -0.4251970127801556476
3.0846065323838676164 1.5130862935547517711 -0.45280480845843257276
3.0651705597105554091 1.1951687369657009175 -0.51294143721162765992
2.4382480213278254766 1.7058318269684065172 -0.61965297884368031323
2.526881504724783678 1.5919850193348568101 -0.50815765437115878456
2.5760717132590849054 1.370740398391967485 -0.51043273273657707723
2.6949500329251061537 1.1422027797664235926 -0.51495410960917531451
2.6728606467375697342 1.5078234443436819845 -0.45803949176643427021
2.8770481017826696757 1.6003867818316044325 -0.41326209033987854058
2.6039178623346286301 0.9269293834113856434 -0.5561988756040943116
2.5321153666963547302 1.7574699838765373006 -0.49244452172439040494
2.6420904870310581991 1.8497558703848966388 -0.39514614551228982586
2.8179877063687186478 1.8714178723675134464 -0.33877213727745902894
2.5618826076456171492 2.0003756472076514861 -0.46117530695605946089
2.6071481785469989845 2.2026816669111619618 -0.38230607912505054635
2.8565988470266354682 2.0359374795028761795 -0.27662958120882530366
2.7648287790548877751 2.2640923206394858447 -0.17881022242247524012
3.0303280911719148172 1.9780629142344461346 -0.31059713396413402009
3.2436892116050053403 2.1271783381300601867 -0.31006238672423408476
3.4807024664942556313 1.9971147405661946461 -0.44648918611867816075
3.1934736157654950439 1.8621431520070366172 -0.38348486942743198469
3.1628725028491384563 2.3686709362284941172 -0.18156559825738508018
3.3968147381357223225 2.5298420597169757329 -0.21441714701439215651
3.3975813091857789416 2.7753173797301977643 -0.10152704270221561689
3.2072481552052627407 2.8627364118217006883 0.072524369575006047972
2.9904747938947542352 2.7169888069516265894 0.10323369950122515681
2.6712186902677688138 2.3691810910743322793 -0.48216069967794639162
3.5699239218096581183 1.7731654571396775477 -0.54686250872304986714
3.4858806479378818821 1.4785655317734920366 -0.57514490164332132682
3.8055745120751316435 1.7027622188111943835 -0.68859926252603298469
3.9397828994835686345 1.9077742882859867191 -0.737730675256550672
3.903454777517239016 2.143797737643589052 -0.66085038339274326802
3.6883549820128060936 2.2234071402669077777 -0.49130750067981626694
3.6469276837854871509 2.484260558958327092 -0.38315235656285517862
3.8194814227023812236 2.6999484766331609542 -0.45405457007594751673
3.7750510013915827834 2.9708246662302681962 -0.34766550989954442263
3.9915600792999277324 2.6753228089273810575 -0.64633595716999381331
4.0161250279717943812 2.857452390966518152 -0.81864753656133060211
3.765955712155131252 2.9711157157069618684 -0.79790568766123770583
4.1222338910200360118 2.6330814570338256786 -0.85651541980435530466
4.0826420826880873705 2.413480279913236437 -0.7810937632265302355
3.767183904893796953 2.8201096630002338017 -1.0045051240747462362
3.55198043905194627 2.6756874939843768857 -1.1163885287991095474
3.2400251433952305113 2.6346207865005246695 -0.94573797119467517547
3.0499082685849638885 2.3702544261527425107 -1.1241579478821519533
3.7632728619121529334 3.1172556289247674854 -0.58059931676753839813
3.5486689971091731621 3.0211248755791180187 -0.67641001651633680947
3.2721286989755236085 3.0090926760962855013 -0.52950204399286915358
4.1589819452578469239 2.2644045541799711074 -0.88632994103949969134
4.2309782552087291663 2.085483970532854503 -0.98739069217047625848
4.3072523887562290668 1.9479956494746699658 -1.0919681125251636811
4.339065657826933986 1.7878797902212399951 -1.1385716528597558117
4.4039637124786850109 1.5663523407211126237 -1.2298141823908403936
4.2710436847176387332 1.6071983579731996539 -1.0718886129910836225
4.4113504731737567255 1.3534735568896332225 -1.2464472348771471477
3.329815149112851369 2.8616180527397125921 -0.7364719444001365245
-0.34868129632004973839 0.85933753579767147013 3.440612034482090742
0.63062609593444873823 2.726862254864539814 0.56742773796215872917
0.51562908745104285568 2.4891403656860062732 0.61130490191214481577
-1.7658741886466593485 4.5534036740305081636 1.9954491508918432707
-1.5681676454973760837 4.6483007709553820774 2.015091193576887818
-1.5000077626882430959 4.6718400300498306166 1.8415453321180708102
-1.4103257045284447457 4.703969681623743071 1.982879978461473236
-0.5670949031769553228 2.8534840324222940922 4.154300487397141417
-0.62999398304814024918 3.0178688801219881732 4.0567949841824404444
-0.77708879668831820631 3.0008692599855373295 3.8916972297931788916
-0.83235420183226183077 2.7747722164086563446 3.8176644092499056882
-0.62937626280090974706 2.6723679755706202243 4.1056808302057659077
-0.74349376386302723496 2.652898373290102807 3.9454451741191380876
3.8405684601468950135 -0.9367965259730356431 -0.82371364592299611829
3.6043271161003325176 -1.1359823002699807049 -0.68246723639163808794
-1.8197082510525712795 3.2205292002715228961 0.40333105349408243656
-2.6167197875712968624 -3.6435402376640144695 0.3353267045785611189
-2.3459479959329563314 -3.5226922785013310424 0.35503647660730419666
-3.4562796656635748072 -2.7008342129677833654 -0.17451083405091177836
-3.5659823064807638637 -2.4991277358958257082 -0.32542222820140997985
-4.4228920771483197782 0.65172713046114350011 -3.2850114496974320843
-2.9955481584170113862 -2.5440994427251690801 -0.80544928898641798831
-2.9327258565042044758 -2.3716739368473862548 -0.9687519090147825862
-2.9465662022642140627 -2.2508331491049924367 -1.1845754653130464717
-2.8879025960209934176 -2.1215818599579905346 -1.330846581091805314
0.71452812610290739048 4.224890406614332683 1.1021954601503687332
0.46139217037202290284 4.1623832124239541486 1.0655190222437704861
0.38321521406883368721 3.9318812522279964483 0.91521271033099516057
-4.8155739400347661316 0.93536410721124041423 -2.2222195254245202811
-4.7731716518384947889 1.118040287213858397 -2.2373069043264917077
-4.7328222358055453967 1.1598082893150045702 -2.3854645126645217523
3.6129605702781937282 -0.12406051603137466244 -4.0869717894744903575
-4.4354109440342366355 0.56123414654245629141 -1.3049759859485827729
2.012811515312911137 -4.4866810536364303275 1.6425849002726946591
-4.1463755235841830427 -2.1468432538537896015 -1.9184392754494654643
-4.1093091739936165041 -2.2668113667853080351 -1.7632054471383320493
-3.9813884305291211696 -2.3703516376033961777 -1.6450890216016953449
-3.9325558023936921792 -2.5380088733209711371 -1.4103475245940677585
-3.6341895758882518663 -2.5125577125634146469 -1.3809684353030329262
-3.3724165668827787989 -2.4962660650196886181 -1.2479383710061555668
-3.8424953883429591173 -2.6804559025605203537 -1.2071044064020945985
-3.8136216241876352839 -2.8607106601162946014 -0.95404276973531187966
-3.5519087243152069888 -2.8486327796777626276 -0.89114522436876097977
-3.3925375532875063911 -2.9572522291174161424 -0.66791811303384740484
-3.3421293887678378276 -2.6735485207231519666 -0.98043716217075360664
-3.9834738114364185435 -2.7673318935284854092 -1.0605251008469260832
-4.1579910686091947625 -2.6084428140391282547 -0.93357940475779999101
-4.2628054362936040889 -2.4404872999674904754 -1.1124034648548177806
-4.2114013223337440905 -2.4737014026768875397 -1.3668885087384547994
-4.0225926287421129857 -2.8467803222101659699 -0.83814507443379349105
-3.9152514904998825251 -2.903786079962857869 -0.54043302077603427858
-4.0889304352482369609 -2.4416137529215413693 -0.78638570559460607701
-3.8649557466853838861 -2.9683020836391138531 -0.78648941929014848373
-3.5335144811767116302 -3.1208204423776111369 -0.55041620456967221831
-3.7841233325102678897 -3.1372968567192702771 -0.52830943539501684647
-3.747965466022942671 -3.0746950603758711473 -0.30135538095639641254
-3.6110170555005884907 -3.2125262181710514398 -0.11211556641516289001
-3.7868924534994730102 -2.8847631586045090479 -0.37749506959768475145
-3.4231870869125904377 -3.2160987022051670259 -0.39521611944928547455
-3.4816087743148060873 -3.3687798647093334381 -0.233716560649274957
-3.3670903096134892074 -3.5116132847420429286 -0.033528955380665040331
-3.2832708151336258418 -3.6485440478441799605 0.16915976121686424061
-3.5495708093124855864 -3.4012842359222923427 -0.034225346817877151662
-3.4318988167349306906 -3.4116176931246005033 0.14259167819320375803
-3.4698701012211681238 -3.2356046176392450064 0.05028219066209949073
-3.3117019111846102142 -3.4844376601314235309 0.30622887098296769359
-3.1351008108550311171 -3.4340755168040577594 0.49034356968398662424
-3.097605624993681861 -3.6314040998185803666 0.6093742724101830488
-2.933212005978152348 -3.7006746726097889955 0.83929490285145680328
-2.7478434508043632079 -3.4346501672436402508 0.95080931485120567803
-3.8525566753692617183 -2.755681984496726411 -0.47397504587736416504
-3.9188749043462594024 -2.6237507119191256777 -0.56903938781728835572
-3.1010323444188787612 -3.7182963808883804369 0.26058412344586573406
-4.3016398527901182902 -2.2395646913272022616 -1.665199604019818036
-4.3387836800542460836 -2.3031245176087540294 -1.4584908909377194419
-4.4363620363224951504 -2.1096298411023504116 -1.4165695003250178274
-4.3745394809770399291 -1.9733661901899499647 -1.1940581424695320134
-4.3735127402302493849 -1.6564048698418962768 -1.1875324764959092061
-4.5111308300391383952 -1.5912409140205601155 -1.3939589436289483437
-4.4273972516398476529 -1.3856573263981626365 -1.2651728595230478103
-4.4867939788976176629 -1.149909520808355623 -1.3474127746370265779
0.49987204218776376541 -0.26604572775284790476 -3.968733739835263119
-4.4949520139867429336 -1.9836751340714788849 -1.5305985072367866984
-4.5497494599794245929 -1.8156445788194204294 -1.5719295120821781264
4.1715515002107421694 2.6218189745230353616 -1.0632686251092651197
4.2823955731729883567 2.4289335187116729564 -1.276760252682246799
4.0219698874584679515 2.6292005410982266511 -1.2606477377218785474
-3.0316812016885252845 2.4136730303579234658 -1.0355747932566072844
-0.46589773913029947083 -4.401840593990383077 3.395343515970025372
-0.33369375259142181056 -4.5191275040459224499 3.3066952332153265459
-4.4003537171666176064 2.1982061415302749374 -1.3876085113281388939
-4.417026633211740716 2.0680438839818746644 -1.3060045608678758633
-4.3736519026796401022 1.9665069517705238145 -1.1919117794754128248
-4.3927491358793053777 1.7945596829697036956 -1.2130050719922631508
-4.48280239478738185 1.7448905999229893382 -1.3609132312098781714
