3
-0.546240 1.147515 -4.913758
-0.669850 0.956788 -4.725000
-0.812987 1.111613 -4.708375
-1.382313 0.605414 -4.560625
-1.084451 0.478061 -4.785969
-1.127615 -0.127976 -4.555552
-1.092313 1.185875 -4.647375
-1.380375 1.155750 -4.531625
-1.655250 1.384438 -4.499500
-1.334819 1.518687 -4.724874
-0.259609 1.813188 -5.637750
0.017560 1.586334 -5.607053
-0.360740 1.657063 -5.614313
-0.559321 2.158508 -5.330322
-0.713125 2.142688 -5.319938
-0.741919 2.154812 -5.157375
-0.742647 2.035507 -5.375190
-0.985050 1.881063 -4.974625
-0.966681 2.032562 -4.835688
-3.163845 -0.599602 -3.880545
-3.147755 -0.545974 -4.338072
-2.580740 -0.643741 -3.998098
-1.418288 -0.648894 -3.304875
-1.802413 -0.773850 -3.823125
-1.071550 -0.866163 -3.534873
-0.606811 -0.386533 -4.630408
0.043137 -0.697411 -4.451344
-0.011873 -1.250325 -3.660500
-0.519546 -1.087988 -3.700849
-1.896462 0.686187 -3.741080
-2.465834 0.137939 -3.477368
-1.856937 0.317100 -3.186250
-0.022615 2.385313 -3.883375
-0.766049 2.312066 -4.179011
-0.920872 2.312812 -3.689187
-0.010746 2.354750 -3.419063
-1.895722 0.923968 -3.146709
-1.682189 1.028866 -2.594877
-1.622174 1.697244 -2.960782
-1.906294 1.472324 -3.398544
-1.313037 1.334756 -2.216875
0.040630 2.042034 -1.889154
-0.622789 1.861625 -1.910875
-0.057908 1.994457 -1.183598
0.712551 1.791851 -1.578371
0.901312 1.983250 -1.286850
1.024800 1.944000 -1.609875
0.676688 -0.721156 5.463683
0.424551 -1.449061 5.548172
1.268507 -0.845108 5.216696
1.540687 0.171100 4.766875
0.855256 0.154509 5.121313
2.006698 1.595468 3.072973
2.035500 2.061250 2.559125
1.795875 2.193625 2.893375
1.927000 1.749500 1.464875
2.172125 1.775000 1.673750
2.097938 1.634688 1.837500
1.790234 1.572891 1.611133
1.197887 1.299731 1.837500
0.739217 1.625000 1.932915
1.065413 1.922000 1.649750
0.673825 1.813530 -0.522863
0.983250 2.042000 -0.624563
1.173531 1.845375 -1.701250
1.201375 1.963000 -1.733750
1.587000 1.959250 -1.788875
1.068268 1.393594 -1.610729
1.229350 1.606694 -1.618324
1.228225 1.223404 -1.710792
1.906312 1.248363 -1.175300
1.957937 1.582625 -1.399387
2.068050 1.719877 -0.817711
1.984437 1.275338 -0.401844
1.920563 0.523319 2.587687
1.574004 0.602295 2.084175
1.631187 1.076513 2.061500
1.940938 1.098544 2.329313
1.857777 0.631091 3.883778
1.946474 -0.298340 4.353293
2.248082 -0.388382 3.331225
2.037625 0.718931 3.185000
2.045572 0.739537 -0.470358
2.045779 -0.230157 -0.584465
1.831143 -0.008824 -1.252685
1.833735 0.925724 -1.232097
1.833145 -0.323565 0.415130
1.658848 -1.236707 0.257334
1.821041 -0.980431 -0.221791
1.924437 -0.231069 0.037719
1.750801 -0.776317 -1.198709
1.906021 -0.855518 -0.638558
1.563990 -1.336152 -1.008047
1.186587 -2.223813 1.110169
1.274906 -2.283625 1.819563
0.652006 -2.719812 1.797844
0.603671 -2.570812 0.935569
0.467830 -2.357250 -0.940812
0.566262 -2.475688 0.163050
-0.004301 -2.474563 -0.892994
2.829875 -0.304000 -4.125438
2.298374 -0.251929 -4.409580
2.172854 -0.219897 -4.059454
1.786633 -0.113247 -3.998237
1.473000 0.114395 -4.172250
1.705750 0.367732 -4.004063
2.093980 0.115049 -3.771323
1.051900 0.726213 -4.683250
1.150870 0.498631 -4.745964
0.639804 0.574147 -4.894880
0.818038 0.780688 -4.720500
0.021074 0.274581 -4.883375
0.019425 0.689475 -4.912063
0.386012 0.852850 -4.948062
1.646500 1.404875 -4.525375
1.726098 1.138602 -4.333323
1.471250 1.027075 -4.439750
1.380375 1.156000 -4.530875
0.948788 1.531438 -4.907937
0.740390 1.538717 -5.105591
1.015535 1.866496 -4.953733
0.652400 1.853000 -5.508312
0.412064 1.662122 -5.590597
0.291398 1.813570 -5.639556
0.460578 1.919356 -5.558953
0.697616 2.180836 -5.162214
0.528626 2.145187 -5.350813
0.430656 2.211625 -5.245125
0.617038 2.217312 -5.059813
0.920913 2.041425 -4.892831
1.690106 -0.716012 -4.435688
1.764169 -0.328781 -4.685375
2.576250 -0.384525 -4.693312
2.551207 -0.586137 -4.587195
1.147344 -0.839556 -3.530688
0.893774 -0.771069 -4.036420
1.919125 -0.754287 -3.874500
0.593590 -0.399300 -4.631437
1.093686 -0.120979 -4.564494
1.200406 -0.748972 -3.038697
1.195550 -0.824363 -2.745000
0.914600 -0.984463 -3.241375
0.681850 2.332272 -4.076516
0.575019 2.311157 -4.463657
-0.078181 2.398062 -4.308000
1.687664 1.092523 -2.645814
1.624250 0.249287 -2.644438
1.889416 0.363173 -3.196881
1.896762 0.898678 -3.168313
1.450750 0.294875 -2.162125
0.861824 1.967210 -2.514045
-0.048950 2.113820 -2.261579
0.641795 1.853340 -1.889500
1.535898 -0.802335 -1.558822
1.061258 -1.703818 -1.579894
1.021882 -1.269334 -2.323725
1.498410 0.176783 -1.485318
1.396518 -0.533533 -1.884921
1.449260 0.339105 -1.714184
1.361251 -0.414703 -2.438113
0.476396 -1.669688 -2.575375
0.000933 -1.792625 -2.628438
0.519198 -1.055715 -3.734138
1.526885 2.004488 -3.388727
1.830937 1.768312 -3.708875
1.537331 2.067018 -4.004928
1.160465 2.161846 -4.445605
0.853141 2.133520 -4.745893
1.434563 -0.413644 -2.814313
2.217242 -0.365406 -3.496480
2.477000 0.148207 -3.479125
2.925836 -0.339315 -3.609186
3.148755 -0.544108 -4.337904
0.059053 2.367062 -4.799313
0.483355 2.301744 -4.945353
0.289556 2.299264 -5.139096
-0.040437 2.339227 -5.033285
0.441701 1.978982 -5.515489
0.295013 2.006555 -5.488521
0.717405 2.115454 -5.305158
0.752762 2.028687 -5.365438
1.447125 1.864938 -4.645750
1.320906 1.532500 -4.748312
1.935140 1.422334 -4.020180
1.931016 1.114750 -3.962239
1.450687 0.649532 -4.504875
0.813088 1.112525 -4.708375
0.670050 0.957200 -4.725000
0.606510 1.211852 -4.898651
0.752986 1.377930 -4.917801
1.481008 -0.064557 -4.196195
1.753062 -0.191774 -4.331813
1.418945 -2.301248 2.552957
0.638262 -2.814500 2.678000
1.949412 -1.391435 2.372532
1.603150 -1.451461 1.586364
1.800313 -0.503288 1.695816
2.056975 -0.367188 2.347829
1.922187 1.172994 3.558187
2.060562 1.272388 2.811500
1.681065 1.836162 -1.711851
1.640601 1.604753 -1.624599
0.747408 1.558125 1.274575
0.062451 1.840191 1.198597
-0.030584 1.730396 2.095268
1.797875 1.743875 1.429500
0.644211 1.601450 3.038446
1.159257 1.427866 3.701692
1.260856 1.806250 3.239313
0.927394 1.033249 4.139137
-0.018895 0.919188 4.192562
0.081950 0.416922 4.860099
0.352741 -2.240813 4.982687
-0.045425 -2.398941 4.853438
0.063160 -2.736313 4.186875
0.651857 -2.524875 4.321000
0.392807 -1.942681 5.358582
0.144365 -1.934438 5.359750
-1.522138 0.253067 -1.458796
-1.224937 1.122806 -1.547938
-1.252026 1.152578 -1.695206
-0.808389 2.001000 -2.528563
-1.440923 0.347058 -2.181319
-1.661446 0.382986 -2.668311
-0.593889 2.300040 -4.542245
-0.913544 -1.014972 -3.176315
-1.179359 -0.836223 -2.798683
-1.255311 -0.692732 -3.015992
-0.920906 -0.776081 -4.039375
-2.155768 -0.411926 -3.517753
-2.540368 -0.542117 -4.671027
-0.878045 2.134108 -4.674415
-1.232312 2.121562 -4.455875
-0.039486 2.278020 -5.182646
-0.282602 2.304187 -5.141145
-0.477632 1.963641 -5.525035
-0.396274 1.891752 -5.584773
-0.620619 1.822187 -5.513937
-0.297481 1.981394 -5.515265
-0.211848 1.905188 -5.566938
-1.736875 1.733500 -4.395062
-1.359538 1.870625 -4.721437
-0.618359 0.540189 -4.893458
-0.032229 -0.212550 -4.803472
-0.663785 0.160780 -4.887094
-0.385454 1.248545 -5.153667
-0.370548 0.823469 -4.943500
-2.200184 -0.199210 -4.010932
-2.828938 -0.305725 -4.125563
-0.464005 -2.365688 -0.948800
-1.103906 -2.116188 0.100231
-1.043300 -1.991312 -1.020069
-1.668187 -1.236081 0.386544
-1.186913 -2.200875 0.935887
-1.658000 -1.336712 1.153006
-1.802187 -0.369769 1.332356
-1.840312 -0.165569 -1.243925
-2.236914 -0.389475 3.326043
-2.011485 -0.208668 4.185720
-1.868543 0.656194 3.852492
-1.453730 1.270580 -1.499073
-1.481095 0.975104 -1.440715
-1.233420 1.348299 -1.572268
-1.069083 1.393173 -1.610729
-1.698138 1.826548 -1.706988
-1.588000 1.958250 -1.788875
-1.189334 1.831097 -1.700509
-0.722333 1.690563 0.233656
-0.007304 1.873875 0.228862
-0.002856 1.919500 -0.547119
-1.067212 1.921125 1.649750
-1.297216 1.716604 1.557930
-1.301500 1.867250 1.467500
-2.234625 1.890625 2.133000
-1.246225 1.839188 3.211246
-1.182188 1.544202 3.601453
-0.671601 1.675453 2.891959
-1.575030 0.764398 4.174477
-0.004153 -2.142445 5.190109
0.000207 -1.984750 5.375250
-0.113286 -1.925000 5.402875
0.000208 -1.755500 5.503875
0.113689 -1.816500 5.478125
-0.392510 -1.943344 5.358582
-0.440997 -2.188813 5.005813
-1.679519 1.315044 3.765937
-0.935755 1.144607 4.002289
-0.015861 1.485819 3.137000
-1.799000 1.742875 1.428500
-0.710264 1.571141 1.315341
-1.202375 1.962000 -1.733750
-0.654245 -2.746313 3.555625
-0.491042 -2.618688 4.300000
-1.340790 -1.946066 4.456841
-1.475699 -2.217933 3.415680
-1.763600 -1.136724 -0.304398
-1.812625 -0.254400 0.569131
-1.901060 -0.841492 -0.763694
-2.068563 0.042557 -3.803875
-1.799623 0.371261 -3.920288
-0.817787 0.780187 -4.720500
-1.051862 0.725538 -4.683250
-1.471250 1.026213 -4.439875
-1.725657 1.099015 -4.305280
-0.767319 1.584875 -5.107125
-0.970975 1.575188 -4.912250
-0.628013 2.217244 -5.043202
-0.404072 2.224059 -5.236175
-1.682100 -0.693669 -4.457562
-1.008180 -1.309632 -2.260287
-1.743875 -0.216500 -3.192312
-1.459756 -0.329307 -2.772392
-1.556304 2.044251 -4.022381
-1.584062 1.990563 -3.476375
-1.849161 1.713268 -3.735115
-0.459947 -1.684500 -2.555250
-0.053451 -2.210500 -1.677638
-0.569469 -2.042125 -1.667875
-1.462250 0.135488 -1.704062
0.922420 -1.723356 5.151852
1.521956 0.883021 4.109125
1.302875 1.679188 1.587438
1.678125 1.769375 1.407250
2.091875 2.006500 -1.052087
1.519513 2.016000 -0.359625
1.993657 1.826829 -1.522582
2.072500 1.953500 -1.550250
1.219204 1.098235 -1.551402
1.215844 1.299348 -1.554861
1.236418 1.153752 1.326688
1.704198 0.621495 0.330657
1.305437 1.372957 0.158805
1.595201 0.550736 1.312004
0.663719 -2.752500 3.510250
0.004541 -2.927063 3.486062
1.817562 -0.359381 1.133656
1.644625 -1.344625 1.136681
1.108906 -2.141813 0.313544
0.443611 -2.099813 -1.682262
2.590116 -0.167635 -3.869045
1.642875 0.852306 -4.327250
1.441875 0.907813 -4.464875
0.370378 1.246286 -5.160803
1.912403 0.674459 -3.700037
0.659906 0.159600 -4.891687
2.647063 -0.656863 -3.996313
1.716973 -0.168911 -3.140778
1.932153 1.377106 -3.393631
1.799937 1.682375 -4.321751
1.657209 1.723363 -3.046052
0.964680 2.235723 -3.224304
1.348517 1.167516 -2.144679
0.894344 2.317437 -3.687812
3.164845 -0.597720 -3.880461
0.027176 2.176292 -5.280343
-0.013755 1.884391 -5.543051
-0.002136 1.123012 -5.159251
1.283000 0.772738 -4.581125
0.000821 -2.843812 1.786744
1.566052 -2.102326 3.515552
1.042350 -2.023000 -0.863412
1.447312 0.917574 -1.453187
1.333055 -1.954195 4.445876
0.671858 1.720797 0.309166
1.686188 1.306962 3.755937
2.048774 -1.380536 3.401996
1.799470 -1.235463 4.394137
-1.146281 -1.588519 -1.569250
-0.904762 2.234500 -3.153500
-1.961000 1.159000 -3.861125
-0.412770 2.326108 -4.961455
-1.592016 0.818236 -4.373274
-1.441875 0.906925 -4.464875
-2.638312 -0.173746 -3.854000
-1.558508 0.689170 1.212610
-1.733437 0.634700 0.238513
-1.183367 1.234510 1.188851
-1.387216 1.328848 0.148865
-1.576408 1.563821 -1.629113
-1.181397 1.604331 -1.623269
-1.679875 1.768375 1.406375
-1.791155 -1.086552 4.485484
-2.048267 -1.399655 3.396597
0.113689 -1.930500 5.412250
-1.354750 2.096250 2.932750
-0.959462 2.014250 2.580875
-0.869422 -1.700219 5.222456
-1.726875 1.961500 -1.754125
0.003486 -2.960375 2.725000
-1.906687 1.458312 -4.104375
0.008023 2.062973 -5.379473
0.047572 2.268958 -2.856045
-1.320062 -0.503406 -2.365812
0.957963 2.015125 2.581000
1.353675 2.097250 2.933500
0.961400 1.966125 1.918250
1.725875 1.962500 -1.754000
1.856000 1.937000 -1.722625
1.505025 1.297080 -1.485362
2.233500 1.891625 2.133000
0.223845 1.928746 -5.544527
1.454625 -0.610306 -3.273875
1.300250 1.868250 1.467625
-1.368328 -0.694374 -1.839235
-2.948309 -0.337809 -3.650059
-1.857000 1.936000 -1.723375
-1.520537 2.015000 -0.359787
-2.073500 1.952500 -1.550375
-1.283000 0.772013 -4.581125
1.092325 1.186750 -4.647250
-0.266438 -1.741125 5.464000
-0.161738 -1.830625 5.426250
-0.216832 -1.613375 5.508125
-0.953650 1.955500 -1.490000
-0.840012 1.910625 -1.397862
-0.904775 1.872375 -1.610250
-0.169170 -1.293312 5.524876
0.047643 -0.910875 5.482000
-0.251844 -0.945687 5.512250
-0.460374 -0.568937 5.447625
-0.610987 -0.964262 5.511000
-0.835225 -0.197561 5.303875
-1.234462 0.159841 4.999625
-1.171288 -0.306071 5.229125
-1.416175 -0.550221 5.090875
-1.032375 -0.772599 5.374625
-1.932000 2.146500 2.749500
-1.997250 1.774500 2.901750
-1.907375 1.821625 3.116750
-2.150250 1.745875 1.714875
-2.053000 1.754000 1.537500
-2.017500 1.706000 1.593625
-1.882500 1.679500 1.522375
-1.923750 1.575375 1.680500
-0.860162 1.708125 1.984250
-0.936775 1.518000 1.795625
-1.024575 1.653875 1.831500
-0.876975 1.924500 -0.644038
-0.638040 1.865125 -1.028075
-0.805663 1.915000 -1.066575
-0.896800 2.017500 -0.961450
-2.078250 1.912125 -0.916088
-2.122625 1.918375 -1.282825
-2.104500 1.815000 -1.179725
-2.000250 1.731875 -1.430700
-2.080875 1.645500 -1.074300
-1.710875 1.352125 1.821125
-1.891000 1.351750 1.923000
-1.809250 1.078600 2.145625
-2.022750 1.398125 2.053000
-1.981625 1.245375 -0.985225
-1.855875 1.105525 -1.197075
-2.000750 1.097425 -0.841688
-2.034000 0.819613 -0.733875
-2.028000 0.997250 -0.429038
-2.033750 1.379112 3.012250
-2.033375 0.994750 3.012750
-2.018625 1.130588 3.245750
-1.972375 0.962675 3.484500
-1.945500 1.231987 3.485750
-1.760625 0.525475 2.293500
-1.728875 0.074687 1.935250
-1.854250 0.049675 2.160875
-1.924625 -0.462950 2.009375
-2.004250 0.065738 2.445125
-2.071750 0.330588 -0.469238
-2.017000 -0.214538 -0.204925
-1.988750 0.274112 -0.112438
-1.784375 -0.803750 1.669500
-1.886875 -0.925738 1.952125
-1.820125 -1.380100 2.049375
-2.028375 -1.056425 2.351375
-1.656125 -0.797166 -1.384625
-1.530250 -1.133550 -1.353750
-1.665375 -1.051175 -1.179812
-0.673836 -2.758500 2.209625
-1.098000 -2.552625 2.576875
-1.070150 -2.542875 2.124625
-1.345150 -2.254375 1.969000
-0.999875 -2.523625 1.730425
-0.001531 -2.627375 0.570900
-0.311808 -2.643500 0.915262
-0.301549 -2.604875 0.586388
-0.599630 -2.522375 0.597263
-0.296987 -2.566125 0.197937
-1.795625 -0.237788 -4.613750
-2.220875 -0.327637 -4.756250
-2.172250 -0.272113 -4.584250
-2.452375 -0.281475 -4.508250
-2.084750 -0.232175 -4.378250
-1.656000 -0.037326 -4.008125
-1.454750 -0.025283 -4.155125
-1.603750 -0.089200 -4.100750
-0.612062 1.243113 -4.916250
-0.585863 1.084563 -4.841000
-0.681162 1.173588 -4.821375
-0.711700 1.041950 -4.720500
-0.771212 1.263488 -4.825750
-1.243625 0.534950 -4.681875
-1.088238 0.198050 -4.694500
-1.262625 0.284878 -4.553000
-1.311625 0.055552 -4.343000
-1.434750 0.371170 -4.371125
-1.339375 -0.074763 -4.332500
-1.250000 1.185000 -4.592500
-1.521750 1.251875 -4.520000
-1.394125 1.313500 -4.604750
-1.515000 1.466875 -4.613000
-1.228688 1.341375 -4.688125
-0.157473 1.717250 -5.651500
-0.188047 1.590375 -5.609375
-0.306953 1.750750 -5.669375
-0.682600 2.150125 -5.327875
-0.716500 2.156125 -5.281125
-0.655863 2.185750 -5.240875
-0.733050 2.123375 -5.343125
-0.782975 2.101750 -5.246875
-0.861800 1.946750 -5.160625
-0.867725 2.038625 -5.067875
-1.008925 1.969750 -4.900750
-0.830337 2.090250 -4.998125
-3.206625 -0.611212 -4.076875
-2.981625 -0.639850 -4.216625
-3.030500 -0.657462 -3.919625
-1.644500 -0.702200 -3.536125
-1.385575 -0.813637 -3.644500
-1.258325 -0.789400 -3.411125
-0.241481 -0.603112 -4.531000
-0.016782 -0.939775 -4.135125
-0.304711 -0.851200 -4.190125
-0.269863 -1.169900 -3.721625
-0.530927 -0.802188 -4.164124
-2.120250 0.424012 -3.570000
-2.112875 0.274163 -3.348125
-1.965375 0.525362 -3.418500
-0.410690 2.375375 -3.981000
-0.855764 2.319000 -3.932750
-0.463671 2.370500 -3.754750
-0.484315 2.355250 -3.511250
-0.026905 2.373875 -3.662250
-1.793125 1.015275 -2.837875
-1.695750 1.350562 -2.751750
-1.822750 1.314813 -3.032750
-1.818250 1.563062 -3.204500
-1.924000 1.237563 -3.297375
-1.544875 1.160637 -2.426000
-1.461300 1.540125 -2.573500
-0.339878 1.952875 -1.707500
-0.305845 1.995375 -1.892500
-0.645996 1.803625 -1.755750
-0.353142 1.934875 -1.347362
-0.000472 2.007625 -1.555125
0.810237 1.880625 -1.391975
0.952700 1.956500 -1.490000
0.903862 1.873375 -1.610250
0.408894 -0.551300 5.432500
0.347167 -0.974375 5.503750
0.251681 -1.317312 5.541250
0.610793 -1.068787 5.519750
1.455513 -0.306881 5.032000
1.222775 0.171856 4.966750
1.122038 -0.312519 5.239500
0.796125 -0.323625 5.349750
0.944863 -0.747662 5.404875
2.022000 1.856500 2.812625
1.930500 2.147500 2.749500
1.928500 1.802125 3.098375
2.052000 1.755000 1.538000
2.148875 1.746875 1.715000
2.016000 1.707000 1.594000
1.958500 1.581250 1.709125
1.881000 1.680500 1.522875
1.000950 1.468500 1.773750
0.936487 1.730500 1.779875
1.078275 1.615500 1.745500
0.632745 1.841250 -1.048788
0.788425 1.901625 -0.980775
0.877038 1.860250 -0.563112
0.895750 2.018500 -0.961400
1.192375 1.915375 -1.721375
1.397000 1.962500 -1.771500
1.394750 1.899750 -1.749750
0.968563 1.540500 -1.631375
0.993062 1.681500 -1.635875
1.080063 1.511125 -1.610000
0.954487 1.537750 -1.674000
1.108938 1.340250 -1.630000
1.905625 1.427625 -1.315025
2.069000 1.662750 -1.131200
2.028375 1.484750 -1.007987
2.024500 1.549375 -0.630150
2.027500 1.262575 -0.789425
1.765875 0.524387 2.342375
1.581250 0.855825 2.164000
1.768125 0.818275 2.320625
1.811500 1.061313 2.173000
1.905875 0.838962 2.507375
1.956000 0.128681 4.106375
2.120750 -0.314188 3.918625
2.089250 0.171037 3.644875
2.125250 0.278863 3.270125
1.995125 0.623925 3.537875
2.067500 0.197598 -0.475563
1.979500 -0.113357 -0.893538
1.995375 0.383393 -0.858863
1.851375 0.562918 -1.197288
1.970500 0.831347 -0.946363
1.799875 -0.729050 0.425162
1.756500 -1.076575 -0.052538
1.837125 -0.685150 0.133587
1.885125 -0.660837 -0.063175
1.855250 -0.242025 0.234025
1.835500 -0.862562 -0.943575
1.763625 -1.109288 -0.852675
1.666250 -1.050175 -1.179650
1.213700 -2.258375 1.456000
0.956713 -2.562375 1.785625
0.939200 -2.509500 1.385437
0.631739 -2.646750 1.360062
0.900375 -2.450375 0.979212
0.508070 -2.434000 -0.395225
0.275251 -2.563500 0.179500
0.233313 -2.524000 -0.363825
-0.020194 -2.551750 -0.342387
0.223116 -2.446250 -0.912362
2.553750 -0.261362 -4.281250
2.247375 -0.236088 -4.204125
2.489750 -0.233125 -4.066125
1.608250 0.002256 -4.032500
1.599375 0.224216 -4.078375
1.737125 0.091427 -3.954500
1.873750 0.225366 -3.853875
1.971750 -0.010896 -3.884875
1.081100 0.640200 -4.751000
0.911275 0.538113 -4.854750
0.893200 0.650612 -4.797750
0.732175 0.699188 -4.825500
0.931600 0.738150 -4.708500
0.338174 0.392750 -4.899625
0.037161 0.483025 -4.885500
0.296591 0.582750 -4.898750
0.222710 0.757675 -4.938500
0.490750 0.707875 -4.907125
1.704250 1.281750 -4.424750
1.599375 1.085575 -4.409000
1.588875 1.193000 -4.464250
1.447500 1.096500 -4.475500
1.524500 1.284875 -4.543375
0.862837 1.578125 -4.991750
0.873850 1.712125 -5.072875
0.999450 1.682750 -4.938750
0.539625 1.758875 -5.574375
0.343885 1.746375 -5.669750
0.459788 1.830750 -5.625625
0.388175 1.872750 -5.602500
0.531687 1.903500 -5.564625
0.638425 2.186000 -5.262000
0.483402 2.182500 -5.288500
0.592550 2.210750 -5.205750
0.531100 2.236125 -5.164250
0.673038 2.191000 -5.099125
0.787613 2.123625 -4.952125
0.794950 2.123000 -5.047750
1.714087 -0.542413 -4.606125
2.166375 -0.360775 -4.732875
2.157250 -0.524675 -4.703750
2.610875 -0.502688 -4.710625
2.168000 -0.641288 -4.574501
1.007987 -0.861088 -3.758250
1.262887 -0.748713 -4.220625
1.342212 -0.821400 -3.973125
1.788625 -0.772438 -4.170750
1.489375 -0.804825 -3.715000
0.815775 -0.259988 -4.619750
0.991125 -0.440962 -4.409250
0.733338 -0.596888 -4.318250
1.189100 -0.776287 -2.936875
1.054800 -0.959600 -2.938875
1.065425 -0.871000 -3.126750
0.365466 2.363000 -3.965750
0.673949 2.318000 -4.269750
0.329623 2.364875 -4.152000
0.233688 2.376625 -4.333250
-0.018324 2.393500 -4.090000
1.678625 0.622825 -2.613875
1.744000 0.374900 -2.902375
1.792000 0.704488 -2.891250
1.871000 0.694400 -3.163875
1.852000 0.979325 -2.962375
1.534750 0.304638 -2.404125
1.559750 0.728962 -2.368500
0.313812 2.113125 -2.369250
0.032202 2.081000 -2.096125
0.385917 2.052750 -2.173875
0.409737 1.981375 -1.931375
0.692192 1.894875 -2.086875
1.336875 -1.276637 -1.590375
1.058563 -1.462837 -1.943500
1.292250 -1.089738 -1.848875
1.570750 -0.339340 -1.518750
1.439375 -0.673113 -1.724625
1.482875 -0.249775 -1.615250
1.436750 0.288812 -1.905625
1.455750 -0.081188 -1.730875
1.415750 -0.152913 -1.985500
1.350000 -0.496437 -2.215125
1.411250 -0.127138 -2.267750
0.231180 -1.770750 -2.606000
-0.006974 -1.537875 -3.147375
0.230775 -1.509000 -3.134875
0.246101 -1.199500 -3.687875
0.485110 -1.381875 -3.131750
1.720000 1.905375 -3.566375
1.732000 1.918125 -3.883500
1.560400 2.046750 -3.672375
0.995600 2.136625 -4.602125
0.786987 2.210250 -4.632125
0.900638 2.237875 -4.454125
1.316250 -0.616513 -2.919875
1.303250 -0.631038 -2.783250
2.431625 -0.065587 -3.430750
2.179500 0.248413 -3.385375
2.074375 -0.012862 -3.342375
2.653125 -0.334400 -3.560125
2.742500 -0.110112 -3.523875
2.956375 -0.441800 -4.548500
2.913250 -0.547400 -4.535376
0.297428 2.344625 -4.881375
0.376184 2.316750 -5.051625
0.181565 2.344250 -4.985875
0.121913 2.331125 -5.062376
-0.019235 2.354375 -4.947625
0.367575 1.994250 -5.508251
0.376327 2.062875 -5.437875
0.505400 2.069125 -5.436125
0.637400 2.138625 -5.343500
0.606562 2.070500 -5.421000
0.742650 2.074250 -5.325375
0.594137 2.019750 -5.465125
1.242125 1.884000 -4.777250
1.388000 1.700750 -4.742250
1.185437 1.717875 -4.850125
1.123188 1.555500 -4.841125
1.953125 1.269250 -3.970500
1.846000 1.120550 -4.169875
1.869375 1.298625 -4.195875
1.278625 0.038419 -4.371375
1.103350 0.189151 -4.656625
1.314500 0.294704 -4.476000
1.333625 0.563626 -4.601250
1.466000 0.392329 -4.337625
0.711850 1.042600 -4.720500
0.592275 1.099575 -4.837750
0.682788 1.160275 -4.805750
0.685988 1.300500 -4.903500
0.764188 1.291625 -4.845125
1.455250 -0.024414 -4.154625
1.604125 -0.088229 -4.100000
2.458875 -0.288963 -4.570250
2.105250 -0.262388 -4.608625
1.756500 -0.223575 -4.563625
2.025375 -0.229888 -4.382625
0.587028 -2.516625 0.566450
0.302998 -2.642500 0.908275
0.298479 -2.591625 0.558113
1.388862 -2.275125 2.177375
1.049250 -2.584625 2.579625
0.984413 -2.593750 2.189000
0.639897 -2.783625 2.247750
1.531375 -1.132588 -1.353375
1.657125 -0.796190 -1.384250
1.742375 -1.390550 1.888125
1.745375 -1.039400 1.661500
1.903625 -0.939963 1.981500
1.930125 -0.460250 2.051250
2.083875 -0.815775 2.355875
2.032625 -0.190062 -0.254288
1.988750 0.275300 -0.112112
1.721875 0.081688 1.896250
1.848250 0.069338 2.215000
2.008250 0.067300 2.524000
1.979750 0.928913 3.437000
2.028750 1.006575 3.035625
2.001500 1.158900 3.267750
2.046250 1.406500 3.018625
1.955750 1.417750 3.326000
1.861750 1.094025 -1.196663
1.994750 1.061750 -0.844900
2.024750 1.029075 -0.434000
1.690375 1.335875 1.851250
1.878500 1.338625 1.934000
2.014000 1.388000 2.076250
1.180437 1.752625 -1.665875
1.415125 1.826375 -1.715125
1.431750 1.725625 -1.674750
1.645750 1.717750 -1.667250
1.452250 1.593500 -1.632875
1.092500 1.951500 -1.685500
1.044187 1.885625 -1.674625
0.389583 1.743500 1.287413
-0.000654 1.780250 1.637625
0.388016 1.689625 1.708000
0.374838 1.654625 2.073625
0.725325 1.552750 1.637000
1.801625 1.687250 1.477125
1.848000 1.745000 1.437500
0.923350 1.550375 3.410750
1.182663 1.604250 3.477500
0.952163 1.739875 3.116375
0.443339 1.011163 4.100250
0.009187 0.653663 4.591875
0.479961 0.728463 4.536625
0.460547 0.350038 4.960375
0.905811 0.602969 4.693376
0.140986 -2.347500 4.906375
-0.020717 -2.557000 4.571125
0.209066 -2.513750 4.600375
0.329839 -2.683000 4.244875
0.461713 -2.395000 4.685500
0.439050 -1.732000 5.458000
0.266675 -1.742000 5.465875
0.251217 -1.927125 5.376125
-1.346125 0.754413 -1.514125
-1.244000 1.078462 -1.589625
-1.387500 0.672413 -1.562500
-0.321481 2.039250 -2.077625
-0.386780 2.092250 -2.360000
-0.698907 1.912875 -2.187250
-1.559875 0.728000 -2.368750
-1.418000 0.886037 -2.148125
-1.859875 0.596237 -3.165500
-1.734500 0.320437 -2.916375
-1.790875 0.645875 -2.868625
-1.688875 0.690087 -2.601875
-0.390032 2.362000 -4.406750
-0.635986 2.307625 -4.357375
-0.366259 2.377250 -4.180000
-1.053725 -0.960450 -2.938875
-1.188075 -0.777038 -2.937000
-1.103225 -0.843650 -3.101500
-0.700812 -0.866112 -3.946000
-0.732262 -0.597425 -4.318250
-2.053750 -0.624687 -3.663000
-1.809375 -0.514013 -3.415875
-2.912250 -0.549125 -4.535875
-2.578000 -0.640338 -4.411500
-0.927437 2.082125 -4.775125
-1.109625 2.067375 -4.658750
-1.013875 2.139625 -4.564375
-0.000288 2.316000 -5.114625
-0.180788 2.295375 -5.163875
-0.182171 2.324625 -5.091250
-0.423325 1.936625 -5.551250
-0.502437 1.878000 -5.586125
-0.560925 1.937875 -5.537374
-0.699750 1.915375 -5.443875
-0.574450 1.995500 -5.488250
-0.231040 1.926375 -5.555625
-0.232566 1.880625 -5.590875
-0.289150 1.898875 -5.587501
-0.335700 1.853125 -5.618375
-0.336725 1.931875 -5.560750
-0.410513 1.979500 -5.517500
-1.555625 1.823875 -4.563250
-1.396950 1.702750 -4.723625
-1.594500 1.635000 -4.584000
-1.750000 1.539750 -4.442500
-0.296067 0.355712 -4.893625
0.004988 0.053613 -4.860000
-0.337532 0.153163 -4.873250
-0.427386 -0.010087 -4.864375
-0.660591 0.324700 -4.904000
-0.486037 1.186600 -5.003750
-0.344700 1.004075 -5.015875
-0.475263 1.033412 -4.929750
-0.527837 0.896688 -4.861125
-1.550750 -0.120915 -4.254500
-1.452250 -0.160093 -4.474000
-1.783625 -0.171055 -4.189500
-2.010000 -0.208187 -4.190125
-2.243750 -0.232763 -4.160750
-1.992750 -0.172529 -4.015250
-2.955375 -0.443537 -4.549000
-3.101000 -0.445462 -4.241625
-2.791750 -0.330413 -4.427500
-2.552875 -0.262900 -4.281375
-0.515710 -2.435750 -0.383875
-0.832738 -2.359250 0.181525
-0.767387 -2.312250 -0.404075
-1.071037 -2.057625 -0.484262
-0.738675 -2.231000 -0.975375
-1.428750 -1.720125 0.310637
-1.146525 -2.160750 0.549225
-1.440375 -1.769625 0.692900
-1.461375 -1.817625 1.095675
-1.660750 -1.283587 0.762612
-1.773375 -0.848975 1.190588
-1.633250 -1.360088 1.422000
-1.744000 -0.884950 1.438000
-1.775375 -0.421350 1.584375
-1.869750 0.316901 -1.207913
-1.985750 -0.109386 -0.920300
-2.013000 0.381971 -0.872450
-2.185625 0.024175 3.290750
-2.183250 -0.344175 3.704250
-2.069750 0.208438 3.734500
-1.914875 0.361688 3.990250
-1.958125 0.640800 3.661625
-2.070000 1.661250 2.707875
-1.627500 1.261150 -1.439750
-1.454250 1.151700 -1.464875
-1.651000 1.112700 -1.381625
-1.664375 0.904662 -1.364625
-1.338875 1.314750 -1.547375
-1.195250 1.260125 -1.555750
-1.308875 1.206400 -1.519500
-1.337875 0.984163 -1.497500
-1.109537 1.339625 -1.630000
-1.137250 1.268500 -1.590875
-1.604875 1.897000 -1.756625
-1.395625 1.898750 -1.749750
-1.465500 1.820625 -1.722375
-0.380674 1.809750 0.232188
-0.008984 1.899500 -0.177312
-0.367187 1.851250 -0.175425
-0.350305 1.888500 -0.515025
-0.706780 1.735875 -0.178163
-1.156875 1.766500 1.611000
-1.281250 1.816625 1.500875
-1.161500 1.899000 1.550000
-2.237500 1.822000 1.889000
-2.173500 1.692250 1.952125
-1.194838 1.723500 3.363000
-0.924675 1.549875 3.410500
-1.011013 1.749000 3.159125
-1.802000 -0.111809 4.551375
-1.560762 0.351966 4.587625
-1.792250 0.315826 4.269875
-1.776250 0.685725 3.996875
-0.000427 0.059263 5.160625
-0.338964 0.312450 4.988000
-0.437638 -0.094313 5.275375
-0.853275 -1.177350 5.440000
-1.045163 1.884625 -1.674625
-0.973362 1.805000 -1.661750
-0.000634 -2.052625 5.289125
-0.064645 -1.967000 5.382000
-0.063786 -2.035625 5.297125
0.065055 -1.774000 5.498500
0.217051 -1.673625 5.516500
0.169235 -1.570875 5.543750
0.034846 -1.535125 5.511625
-1.158200 1.867125 -4.847875
-1.178375 1.973000 -4.756000
-1.348500 1.997375 -4.588125
-0.411171 -2.056625 5.226500
-0.191772 -2.191250 5.123375
-0.216049 -2.079500 5.263750
-1.478250 1.779500 3.394625
-1.729375 1.688625 3.415375
-1.421162 1.456625 3.720375
-0.481184 0.976663 4.174125
-0.046984 1.236163 3.676000
-0.444661 1.310888 3.620500
-0.352024 1.553500 3.067500
-0.735337 1.428250 3.479250
-1.849000 1.744000 1.436500
-1.803125 1.686250 1.476500
-0.297040 1.767625 1.286450
-0.389284 1.689500 1.707875
-0.720650 1.563125 1.701625
-0.452412 1.673500 2.036000
-1.193375 1.914375 -1.721375
-1.093500 1.950500 -1.685500
-1.398000 1.961500 -1.771500
-0.959612 1.562000 -1.793625
-0.955012 1.537000 -1.674000
-2.020750 1.501125 -0.605362
-2.044750 1.431125 -0.960050
-1.918375 1.396375 -1.294950
-1.587500 0.916425 2.129625
-1.751375 0.839962 2.276875
-1.893625 0.851963 2.473750
-0.616474 -2.680125 3.951375
-0.861612 -2.370250 4.383625
-1.039025 -2.403000 4.000750
-1.486900 -2.087625 3.867250
-1.098650 -2.479625 3.546750
-1.480625 0.680712 -1.440750
-1.889750 -0.699638 -0.057363
-1.704875 -1.189075 0.075750
-1.822250 -0.730937 0.213262
-1.788875 -0.747463 0.468675
-1.839500 -0.258388 0.309425
-1.763000 -1.110325 -0.852825
-1.800125 -0.849066 -1.045812
-0.639260 -2.627750 1.329825
-0.939800 -2.483000 1.339275
-1.216800 -2.237500 1.298300
-0.911800 -2.436375 0.972825
-0.273709 -2.516000 -0.355213
-0.231729 -2.447375 -0.916525
-2.489125 -0.234612 -4.066250
-1.931500 0.193629 -3.824250
-1.663375 0.274829 -4.030125
-1.775000 0.067621 -3.925625
-1.883125 -0.062021 -3.911000
-0.779188 0.692688 -4.809750
-0.880488 0.543400 -4.858625
-0.960250 0.651550 -4.776250
-1.117988 0.652675 -4.725375
-0.931450 0.737550 -4.708500
-0.183884 0.727625 -4.939125
-0.222301 0.536125 -4.912250
-0.467096 0.677562 -4.908875
-1.447500 1.096000 -4.476000
-1.580625 1.051175 -4.406000
-1.575625 1.154375 -4.445125
-1.711250 1.260750 -4.400500
-0.729575 1.451250 -5.015375
-0.825900 1.450000 -4.926750
-0.862912 1.578125 -4.991750
-0.416438 1.814750 -5.636000
-0.499913 1.734750 -5.574000
-0.533588 2.235000 -5.169250
-0.469236 2.186250 -5.279000
-0.593113 2.205375 -5.210250
-0.688187 2.183625 -5.110875
-0.764750 2.155375 -4.841374
-0.788112 2.123125 -4.952125
-2.633250 -0.441100 -4.749500
-2.199125 -0.448637 -4.774875
-1.740375 -0.478413 -4.684000
-2.141750 -0.620238 -4.598875
-1.746325 -0.791850 -4.136125
-1.273100 -0.725150 -4.239750
-1.352225 -0.826288 -3.926500
-0.997425 -0.873563 -3.744000
-1.101325 -1.022137 -2.617375
-0.918225 -1.208350 -2.735625
-1.842500 0.040012 -3.176250
-1.570875 -0.268650 -3.011875
-1.658250 0.001187 -2.969750
-1.571625 0.055087 -2.682625
-1.059125 2.214750 -4.324875
-1.385000 2.106500 -4.248500
-1.163613 2.224125 -4.095750
-1.268087 2.206375 -3.858125
-1.754750 1.865000 -3.614375
-1.888625 1.601875 -3.577625
-1.793125 1.738250 -3.398125
-1.609637 1.880625 -3.235250
-1.551625 0.320888 -2.445500
-0.229317 -1.757000 -2.625875
0.008833 -2.021125 -2.122500
-0.229668 -1.992375 -2.110000
-0.298675 -2.158375 -1.684375
-0.484838 -1.893125 -2.067125
-1.411125 0.596925 -1.680250
-1.485375 0.187138 -1.552750
0.411542 -2.056125 5.226500
0.610250 -2.048625 5.080750
0.602013 -1.833125 5.333750
0.436862 -0.094025 5.275375
1.695500 0.751644 4.092000
1.541613 0.582581 4.388750
1.742125 0.373194 4.357000
1.763750 -0.089694 4.622500
0.320301 1.495138 3.057500
0.350666 1.274662 3.601625
0.734001 1.347013 3.614125
1.488125 1.745250 1.476375
1.699500 1.690125 1.479875
1.554500 1.598250 1.597625
2.070750 1.875875 -0.906038
1.849000 2.012500 -0.651850
1.914250 1.836625 -0.550625
2.038125 1.907125 -1.526000
2.140500 1.981500 -1.348500
2.100875 1.889500 -1.369250
1.136500 1.269125 -1.590875
1.130625 1.354625 -1.585875
1.188500 1.224750 -1.552250
1.015612 1.383500 1.259737
0.980312 1.398750 1.604625
1.183400 1.198587 1.715000
1.553750 1.036425 0.269600
1.274238 1.203475 0.762938
1.454625 0.939687 0.782412
1.450750 0.873225 1.293725
1.607750 0.614513 0.907675
0.643238 -2.682875 3.907000
0.303940 -2.817125 3.860125
0.011005 -2.856125 3.837375
0.311891 -2.887875 3.494875
1.822250 -0.297475 0.730313
1.800500 0.080575 0.450725
1.762250 0.164012 0.798550
1.729625 0.146112 1.206975
1.991125 -0.565087 -0.580775
1.919250 -0.524040 -0.930900
1.801875 -0.477670 -1.248000
1.333625 -1.519462 -1.324000
1.425000 -1.834000 1.347000
1.426375 -1.815875 1.065900
1.616875 -1.365675 1.383000
1.149225 -2.186000 0.740137
0.862137 -2.400500 0.588575
0.834363 -2.354375 0.157825
0.491065 -2.226000 -1.322275
0.244646 -2.323125 -1.309575
0.011571 -2.361125 -1.305075
0.191747 -2.186625 -1.679900
2.345875 -0.195125 -3.972750
1.985750 -0.191900 -4.024625
2.153125 -0.138011 -3.929500
2.301375 -0.026084 -3.797250
1.682375 0.996225 -4.336875
1.546375 0.894825 -4.443625
1.580875 0.992775 -4.403625
1.471500 0.967800 -4.437500
0.723238 1.725750 -5.326000
0.573237 1.602250 -5.386125
0.547475 1.398625 -5.162375
0.384035 1.490875 -5.418125
1.807875 0.509626 -3.901500
1.657625 0.637713 -4.179375
1.773125 0.769388 -4.043125
0.880525 1.339625 -4.820125
0.825863 1.450125 -4.926750
0.723625 1.952625 -5.432750
0.879013 1.965875 -5.182250
0.830038 1.858500 -5.255750
0.372111 2.248500 -5.203750
0.465737 2.273250 -5.125250
0.559012 2.259375 -5.023500
0.634821 -0.111000 -4.811125
0.877788 0.052538 -4.777375
0.917650 0.337462 -4.850625
2.435250 -0.559463 -3.736875
2.055125 -0.623463 -3.662500
2.294875 -0.690350 -3.981250
1.889750 -0.253737 -3.319000
1.825750 0.056200 -3.165125
1.391250 -0.416112 -2.635500
1.295000 -0.646575 -2.554375
1.914125 1.102212 -3.219750
1.909000 0.816425 -3.388000
1.936375 1.047938 -3.541375
1.905125 0.965400 -3.849875
1.970750 1.223575 -3.716125
1.706125 1.888375 -4.208375
1.647375 1.795375 -4.482250
1.524250 1.982875 -4.388250
1.324375 2.027375 -4.560750
1.360013 2.131250 -4.234375
1.370350 1.811000 -2.823875
1.583825 1.891500 -3.197625
1.253750 2.023250 -3.015500
1.265650 2.130000 -3.306250
0.867368 2.160500 -2.917875
1.196600 1.541375 -2.294000
1.437325 1.195750 -2.368375
1.344475 1.561000 -2.563375
0.722175 -1.950250 -1.658125
0.499157 -1.885000 -2.105750
0.780937 -1.722875 -2.036375
0.754800 -1.503375 -2.475000
1.465375 0.211287 -1.581750
1.400625 0.725362 -1.684500
1.387375 0.673362 -1.562500
1.279950 1.229512 -1.958000
1.400875 0.770162 -1.897250
1.441250 0.766388 -2.141750
0.740125 -1.247750 -3.000500
0.749850 -1.048550 -3.429500
0.927037 -1.123762 -2.892875
1.276088 2.187250 -3.597000
1.236437 2.222625 -3.854750
0.916805 2.289750 -3.431375
1.960125 1.434375 -3.745750
1.914125 1.595250 -3.884125
1.892375 1.606750 -3.533250
0.680688 -0.883125 -3.919625
0.826675 -0.931950 -3.617625
0.979012 -0.897763 -3.388125
0.532084 -0.724850 -4.273750
3.031500 -0.655675 -3.919625
3.069375 -0.507550 -3.740625
2.829375 -0.532088 -3.739250
0.330435 -0.310988 -4.762375
0.344880 -0.059687 -4.857750
0.745875 2.157750 -4.909875
0.927000 2.082250 -4.775125
0.215384 2.184750 -5.275500
0.180248 2.234250 -5.231000
-0.017806 2.228000 -5.236250
0.121936 2.285000 -5.170625
-0.000079 1.752500 -5.611750
0.136838 1.823250 -5.599875
0.157339 1.717250 -5.651500
0.755750 1.445000 -4.980500
1.805000 0.972475 -4.146750
0.181004 1.168500 -5.177375
-0.005963 1.362250 -5.394875
0.185378 1.402250 -5.409375
0.232830 1.610375 -5.616625
1.540250 0.746837 -4.426750
1.452375 0.804863 -4.512625
1.356875 0.724687 -4.593500
1.376000 0.836250 -4.518000
2.886875 -0.243350 -3.689250
2.597750 -0.007799 -3.652125
2.983750 -0.406050 -3.844250
0.329177 -2.812750 1.794562
0.313233 -2.727375 1.335112
-0.007261 -2.749875 1.319587
1.523787 -2.197500 2.943625
1.108300 -2.492125 3.483875
1.098475 -2.546875 3.012125
0.658151 -2.798125 3.088500
1.389875 -1.724625 0.228962
1.078087 -2.083375 -0.248650
1.354375 -1.696000 -0.389587
1.323000 -1.671000 -0.968037
1.584625 -1.380375 -0.447962
1.733875 -1.203613 -0.545738
1.858625 -0.968138 -0.464325
1.952375 -0.613487 -0.281775
1.476250 0.547397 -1.447375
1.345750 0.755350 -1.514125
1.303875 0.988075 -1.506250
1.442813 -2.037625 4.096125
1.056750 -2.223500 4.399625
1.070350 -2.414500 3.934250
1.546125 0.592750 1.680625
1.378875 0.928150 1.722875
1.377000 0.989137 1.954000
0.972150 1.555875 0.224725
0.746265 1.631750 0.751975
1.049675 1.428125 0.749625
0.895913 1.653250 -1.838000
0.645279 1.804125 -1.755750
1.604250 1.898000 -1.756625
0.972437 1.806000 -1.661750
0.366108 1.841500 0.229362
-0.005636 1.858750 0.747012
0.379548 1.810500 0.748937
1.759500 1.748500 1.414500
1.884125 0.930663 3.717875
1.833625 1.260337 3.677375
1.779000 0.986600 3.867125
1.611250 1.066350 3.939000
1.295213 0.944631 4.153625
1.277100 0.608144 4.537750
0.192253 -2.191125 5.123375
0.000269 -2.263875 5.048750
1.891500 -1.687250 3.431875
1.993000 -1.325412 3.807375
1.749875 -1.698375 3.975375
1.548937 -1.678250 4.461500
-0.723888 -1.547000 -2.414875
-0.769937 -1.730125 -1.976125
-0.866812 -1.863375 -1.624875
-1.045187 -1.487962 -1.858875
-1.102425 1.710000 -2.365625
-1.234663 1.869500 -2.733875
-1.295900 2.128875 -3.322125
-1.294213 2.024250 -3.054625
-0.876245 2.128125 -2.857875
-1.531000 1.962000 -4.402125
-1.693500 1.875750 -4.219875
-1.916000 0.924750 -3.808625
-1.913625 0.775550 -3.461000
-1.957250 1.023125 -3.534625
-1.962250 1.297063 -3.594250
-1.359500 -0.560725 -2.911625
-1.302250 -0.631775 -2.783625
-2.347000 -0.182462 -3.489625
-1.980875 -0.272375 -3.343500
-2.125500 0.005025 -3.314125
-2.368375 -0.493150 -3.722375
-2.165750 -0.720638 -3.949000
-0.868937 0.308287 -4.868125
-0.652566 -0.027650 -4.836500
-0.899600 0.080175 -4.776125
-0.874038 -0.217763 -4.601625
-0.359787 2.311875 -5.100875
-0.357033 2.278125 -5.180875
-0.470163 2.276250 -5.130875
-0.541425 2.278000 -5.001625
-0.887225 1.736125 -5.051500
-0.797337 1.819000 -5.245375
-0.688850 1.689875 -5.315250
-0.913650 1.381375 -4.833875
-1.664500 0.557527 -4.115500
-1.869875 0.527862 -3.857875
-1.738500 0.765475 -4.092750
-0.602488 1.446375 -5.152000
-0.537113 1.570000 -5.374750
-0.371927 1.470375 -5.411250
-1.471500 0.966850 -4.437500
-1.496625 0.892937 -4.454375
-1.556625 0.962738 -4.416875
-1.670750 0.952962 -4.305750
-2.114875 -0.104474 -3.894750
-2.389500 -0.168516 -3.944250
-2.347125 -0.036036 -3.799625
-0.221522 -2.333375 -1.326525
-0.475825 -2.241125 -1.349625
-0.884250 -2.398875 0.621950
-1.466125 -1.849000 1.425625
-1.061312 -1.862250 -1.339875
-1.337250 -1.656375 -1.043762
-1.332125 -1.520325 -1.324125
-1.777875 -0.567324 -1.269438
-1.914250 -0.514636 -0.970850
-2.001000 -0.576329 -0.634813
-1.621750 0.648875 0.652525
-1.762875 0.217350 0.449000
-1.730125 0.220788 0.845338
-1.807750 -0.305637 0.966513
-1.717625 0.177287 1.296213
-0.203545 -2.724125 4.218875
-0.281959 -2.823375 3.882375
-0.302838 -2.888250 3.522750
-1.364875 1.032287 1.240212
-1.256213 1.235512 0.745913
-1.460375 0.985263 0.737963
-1.597875 0.977938 0.260538
-0.982813 1.400625 1.604750
-0.996088 1.393875 1.265025
-1.195250 1.199013 1.536375
-1.629875 1.706625 -1.669500
-1.393125 1.716875 -1.683625
-1.171538 1.720500 -1.658500
-1.350000 1.596375 -1.639125
-0.993987 1.680625 -1.635875
-0.390767 1.758500 0.752500
-0.731086 1.615250 0.758900
-1.761000 1.747500 1.413500
-1.701250 1.689250 1.479375
-1.607913 1.073637 3.957500
-1.822625 1.185962 3.748750
-1.759375 0.977100 3.895375
-1.863875 0.875588 3.752500
-0.903349 0.751600 4.514875
-1.289000 0.941638 4.196000
-1.251325 0.577764 4.614000
-0.208389 -2.331125 4.928875
-1.656375 -1.492950 4.456375
-1.929125 -1.283300 4.057750
-1.765625 -1.709125 3.959000
-1.779625 -1.892500 3.445250
0.129900 -1.874000 5.446000
0.111139 -1.939500 5.383375
0.162087 -1.834375 5.433125
0.097627 -2.048750 5.282375
0.062508 -2.000625 5.332625
-0.110733 -1.957875 5.352250
-0.129500 -1.867000 5.433500
-1.287087 1.949625 3.076875
-1.006013 1.883125 2.946875
-0.853225 1.882625 2.681375
-1.123000 2.049000 2.809500
-1.063375 -1.406350 5.225250
-0.715887 -1.532450 5.415250
-1.091012 -1.767700 4.954375
-1.366175 -1.448475 4.895750
-1.558875 -1.036974 4.849875
-1.077325 1.355500 3.769625
-1.357612 1.199463 3.947125
-0.926850 1.988000 2.240000
-0.792962 1.812375 2.342125
-0.626000 1.696000 2.285625
-1.107337 1.658625 1.743750
-1.005350 1.943500 1.747000
0.003264 1.961000 -0.894325
-0.345626 1.924125 -0.894575
-1.680000 1.961500 -1.776000
-1.714500 1.911250 -1.747000
-1.231250 1.468250 -1.600250
-1.383375 1.447250 -1.599500
-1.533625 1.391125 -1.543500
-1.799750 1.559500 -1.550250
-1.740500 1.407250 -1.483250
-2.107750 1.473250 2.249125
-2.025875 1.172912 2.534375
-2.124250 1.561500 2.487125
-1.846250 0.220912 0.168637
-1.924375 0.689750 -0.081225
-1.781125 -0.791850 0.825562
-1.646375 -1.312250 -0.724850
-1.886000 -0.961288 -0.548137
-2.015875 -1.417600 2.730000
-1.804500 -1.734125 2.391875
-1.835750 -1.850000 2.900000
-1.534950 -2.213000 2.972000
0.008896 -2.917000 2.263750
-0.305532 -2.925875 2.719625
-0.311148 -2.883750 2.253000
-0.327542 -2.807375 1.781425
-2.741125 -0.275562 -3.968875
-0.631950 0.779950 -4.830500
-0.717900 0.861400 -4.725500
-1.852125 1.257500 -4.214750
-1.828375 1.407625 -4.314250
-1.848125 1.610625 -4.238875
-0.177384 2.023500 -5.443875
-0.004540 1.969000 -5.471875
-0.134782 1.951500 -5.510625
-0.161521 1.903625 -5.556625
-0.248046 2.145500 -5.313500
-0.312094 2.112375 -5.364125
-0.175112 2.181625 -5.278125
-0.000212 2.131375 -5.316000
-0.488648 2.323750 -4.720000
-0.633575 2.255375 -4.799625
-0.746750 2.217500 -4.605625
-1.483375 -0.272275 -4.646125
-1.316450 -0.478512 -4.523750
-0.966837 -0.504675 -4.371250
-2.601375 -0.278725 -3.658875
-0.961300 -0.912100 -3.406375
-1.126850 -0.816575 -3.250375
-1.290825 -0.667937 -3.147625
-1.450000 -0.479400 -3.069750
-1.589000 -0.451612 -3.231625
-0.859687 2.217250 -4.450375
-0.921305 2.289125 -3.425625
-0.472621 2.327750 -3.250875
-0.454939 2.270875 -2.971875
0.005414 2.328625 -3.162125
-1.449250 -0.068950 -2.471000
-1.362625 -0.423212 -2.578500
-1.394750 -0.114113 -2.266875
-1.240525 1.219638 -1.937500
-0.987250 1.615125 -2.030000
0.813287 1.805000 2.720125
1.053688 1.903250 2.954125
1.321050 1.994500 3.044125
1.121700 2.050000 2.810000
0.715963 -1.531850 5.415250
1.118038 -1.311800 5.222125
0.853237 -1.176862 5.440000
1.555438 -1.046813 4.867875
1.385563 -1.454850 4.876625
1.182750 -1.861375 4.758750
1.423250 1.366087 3.771750
1.344488 1.175262 3.938500
1.054500 1.301962 3.804625
0.616400 1.667250 2.515750
0.807050 1.812875 2.278750
0.925350 1.988500 2.240000
0.878487 1.834500 1.923500
1.003650 1.944000 1.747000
0.266865 1.953625 -1.347237
0.352195 1.889750 -1.021812
0.344613 1.877000 -0.579688
1.713875 1.912250 -1.746875
1.780500 1.949500 -1.744000
1.800125 1.901375 -1.718500
1.211250 1.431250 -1.577875
1.300500 1.169125 -1.514500
1.318500 1.298375 -1.528875
1.459125 1.139150 -1.460500
1.655000 0.887622 -1.372125
1.668875 1.125075 -1.377750
1.737125 1.256900 -1.387000
2.142875 1.571000 2.500125
2.111875 1.687750 2.698125
2.151500 1.973500 2.355000
2.183250 -0.433113 2.726375
2.126250 0.095538 2.915500
2.023250 0.570725 2.891000
1.693000 -0.421620 -1.427250
1.752375 -0.911100 1.438375
1.781375 -0.866525 1.187212
1.791625 -0.408738 1.423250
1.411375 -1.781250 0.711788
1.649875 -1.293825 0.768538
0.792625 -2.300750 -0.418162
0.755050 -2.215250 -0.963562
3.102000 -0.443600 -4.241500
2.792750 -0.328750 -4.427125
1.958125 -0.213325 -4.174250
1.754625 -0.168498 -4.137750
1.381463 -0.279413 -4.575375
1.452750 -0.159247 -4.473875
0.519938 0.925375 -4.870875
0.351973 1.032775 -5.026750
0.486450 1.076950 -4.939125
0.522888 1.218900 -4.991375
0.347458 0.180588 -4.898750
0.661266 0.386500 -4.913250
1.504500 1.486750 -4.640250
1.581125 1.647000 -4.610750
1.729750 1.547375 -4.470375
0.437150 1.938375 -5.547375
0.344775 1.892625 -5.589750
0.250934 1.878500 -5.591625
0.321387 1.931375 -5.557375
0.248602 1.967250 -5.518875
0.576087 1.972500 -5.505000
1.055875 2.064750 -4.686500
2.617000 -0.643363 -4.325625
2.982625 -0.638088 -4.216500
1.645875 -0.701237 -3.535625
1.810375 -0.512913 -3.415000
1.114850 -1.028762 -2.537250
1.541875 -0.113975 -2.717250
1.566125 -0.256125 -2.968875
1.676000 0.051487 -2.919250
1.120312 2.253000 -4.081250
0.945188 2.278625 -4.250500
0.807183 2.327375 -3.924250
1.821625 1.561875 -3.168000
1.781750 1.760750 -3.362125
0.247320 -1.983125 -2.127000
1.040025 1.619875 -2.074875
1.471250 -0.089800 -2.503500
0.576491 2.269375 -3.018125
0.483461 2.325625 -3.254625
0.462841 2.348000 -3.511875
1.619875 -0.407137 -3.204625
1.422875 -0.504675 -3.034375
1.279375 -0.676425 -3.120750
1.130975 -0.808213 -3.232000
1.299875 -0.756675 -3.376375
1.306012 -0.530450 -4.439125
0.673163 2.220625 -4.848875
0.526447 2.298625 -4.747125
0.247617 2.145625 -5.313500
0.311706 2.112750 -5.364125
0.126493 1.912375 -5.537250
0.125703 1.975500 -5.479875
0.207419 2.026875 -5.447875
1.882000 1.536875 -4.173750
1.801000 1.410875 -4.343375
0.604963 0.793900 -4.840500
0.718150 0.861800 -4.725500
1.551250 -0.120005 -4.254000
2.742000 -0.273925 -3.968500
0.312492 -2.928125 2.708875
0.328930 -2.883125 2.265000
1.701000 -1.946500 2.421625
1.825375 -1.805625 2.902125
2.051500 -1.393287 2.997000
1.788500 -0.800800 0.818262
1.924250 0.690850 -0.080925
1.846250 0.222025 0.168913
2.027375 1.167025 2.564125
2.102875 1.465875 2.284750
2.187125 1.713875 2.019875
1.551500 1.473375 -1.568125
1.791625 1.570500 -1.548625
1.731250 1.415875 -1.475500
1.350625 1.451750 -1.567375
1.993000 1.729375 -1.466000
2.096875 1.796125 -1.245525
0.349251 1.862750 -0.177525
0.705889 1.732250 -0.090875
1.280000 1.817250 1.501000
1.155500 1.767125 1.611000
1.160000 1.900000 1.550000
2.236500 1.823000 1.889000
1.875125 1.601375 3.371875
1.739375 1.679750 3.413875
1.689625 -0.583844 4.791375
1.926125 -0.720800 4.384250
0.216451 -2.079125 5.263750
1.136937 2.012125 -4.715000
0.989088 1.988500 -4.896625
-1.218625 -1.013475 -2.016750
-1.276750 -1.132463 -1.740125
-1.418250 0.284025 -1.922875
-1.374750 0.755437 -1.900875
-0.708700 -1.098875 -3.408625
-0.466581 -1.403625 -3.130125
-0.689175 -1.327875 -2.940500
-1.567238 2.053000 -3.740500
-1.295975 2.183875 -3.589375
-1.888750 1.599500 -3.914750
-1.940250 1.311250 -4.012875
-1.941000 1.447125 -3.798375
-0.795375 -0.952237 -3.635875
-2.139000 -0.729725 -4.281125
0.000514 -0.469487 -4.681375
-0.329478 -0.311188 -4.762375
0.018008 2.384125 -4.564500
-0.179308 2.363750 -4.831250
-0.257348 2.371125 -4.621500
-0.421473 2.074875 -5.422250
-0.137049 1.823250 -5.599875
-1.140538 1.548000 -4.821000
-1.060513 1.344875 -4.755000
-0.943250 1.160500 -4.685000
-1.493750 0.687253 -4.457625
-1.559125 0.480095 -4.251000
-0.578550 1.326875 -5.029250
-2.885875 -0.245025 -3.689750
-2.781875 -0.150850 -3.588500
-2.596750 -0.009304 -3.652875
-3.068375 -0.509350 -3.740750
-2.982750 -0.407812 -3.844625
-0.001931 -2.962250 3.121000
-0.310695 -2.923375 3.143750
-0.665965 -2.788750 3.134875
-1.486250 -1.848625 1.691875
-1.595750 -1.836000 1.999375
-2.152000 -0.952012 2.840875
-2.211500 -0.792538 3.354125
-2.217375 -0.424200 2.940000
-1.703375 0.028289 -1.387125
-1.579000 -0.234529 -1.496250
-1.692125 -0.422611 -1.427625
-2.012500 0.581350 2.827625
-2.112375 0.112113 2.812000
-2.153000 1.972500 2.355000
-1.853250 0.984975 -0.090750
-1.778000 1.263475 -0.163587
-1.496375 1.626750 1.570125
-1.254625 1.566750 1.680125
-1.476375 1.417500 1.740625
-1.478875 1.139725 1.955000
-0.969362 1.539875 -1.631375
-1.080912 1.510500 -1.610000
-1.131250 1.354000 -1.585875
-1.781500 1.948500 -1.744500
-1.795500 1.888750 -1.711250
-1.026788 1.510625 0.226350
-1.045787 1.633250 -0.144162
-1.500500 1.816000 1.422000
-1.489625 1.744625 1.476000
0.015288 1.642250 2.606000
-0.321675 1.680625 2.531375
-1.872500 1.462125 3.486250
-0.461610 0.623163 4.665750
-0.250531 -2.524250 4.616125
-0.521898 -2.376750 4.691625
-0.719425 -1.961250 5.104500
-0.601800 -1.833875 5.333750
-0.064645 -1.770000 5.491000
-0.099532 -1.550625 5.500625
-0.113424 -2.040375 5.286375
-0.438875 -1.732500 5.458000
-0.250896 -1.927500 5.376125
-1.716000 -0.570621 4.736375
-1.935250 -0.726774 4.345250
-1.469000 1.963875 3.169625
-1.850000 2.011500 -0.651950
-1.820875 1.841000 -0.479725
-2.141500 1.980500 -1.348500
-2.057750 1.917625 -1.527500
-1.882625 1.818125 -1.622125
-1.840875 1.700625 -1.593500
-1.008013 1.446875 0.759913
-1.376625 0.970763 1.625250
-1.549125 0.616875 1.697625
-1.421875 0.930687 1.945125
-1.988375 0.904100 2.738750
-1.703750 0.120737 1.675875
-1.976750 -0.645312 -0.349825
-1.400125 -1.650750 -0.616787
-1.436625 -1.663875 -0.106737
-1.110375 -2.533500 3.071250
-0.327764 -2.716125 1.320825
-3.085500 -0.465100 -3.990000
-2.290000 0.129776 -3.667500
-1.359000 0.740575 -4.575750
-1.450000 0.812537 -4.506875
-1.376000 0.835450 -4.518000
-0.197321 1.393625 -5.407125
-0.185293 1.157275 -5.170125
-1.806000 0.915988 -4.071250
-1.881250 1.094687 -4.082500
-1.010625 1.728250 -4.933625
-0.215877 2.248750 -5.222125
-2.870500 -0.456937 -3.727625
-1.336750 -0.564250 -2.075125
-1.200625 -0.891825 -2.336250
-1.245000 -0.742100 -2.608750
