3
1.3071798813011155094 0.74124371338140970789 0.95540649643945818603
1.8862066884469541606 0.68469673170769007609 1.0927482247628448331
1.3433384618956556444 0.28788600732811764349 1.3077219267632522737
1.1605369378002567959 0.40430299303602523775 1.4487814406198185058
1.0185165501914821284 0.63942403840690897887 1.3558315375918308376
1.1227448149276100242 0.7179547139722228799 1.1337321827450055345
1.3144301927711392608 0.09838078173587094799 1.4526749198800916751
1.3870753371029296286 -0.073936740991179625282 1.3678855086309875677
1.6058135437385843147 -0.13649503567634987955 1.2700711579234882365
1.7950560596639593136 -0.08464509029846457866 1.4273147279012674549
0.64019012477183445675 1.8498831831969189121 -1.0882600786929677028
1.283515333922545798 -0.14567257119954832301 1.4897607300069644065
1.1833759120765223738 -0.33293016316036128099 1.5228340493296967928
1.2450139842100957921 -0.2213019844434125083 1.6432346600754359489
1.3708700457295188713 -0.16265906292133547328 1.7799043802832430483
1.5083236070976351328 -0.014319752063445217657 1.8183738918990155486
1.3898725438435859392 -0.34230908530110998322 1.8639434855084766607
1.6703904391945638697 0.108914915388137995 1.8225128657398557142
1.3623154982629930299 0.079941176503008179455 1.7501635299899511722
1.3336025085846465732 0.24300818479385749571 1.7850619393586917294
1.4355939565912403388 0.37459500662921191294 1.8948541538186352007
1.0979625000861792383 -0.45988505842651183908 1.6408934042645708651
1.1134124647037217937 -0.5621590131243013877 1.808124451438793967
0.9800465165757110686 -0.60004984257609439435 1.5886531479991525817
0.96241102082344853752 -0.68467769301195591236 1.3822358317211167478
1.0924302163443215807 -0.68821080759122277293 1.1974400108303062673
1.0769278464201366141 -0.71258908249990660089 1.8943381228953033446
0.94101187861514667965 -0.81497390705499428432 1.8672168610613724127
0.85790939971757773641 -0.95797161749328374469 1.9118815895074627864
0.93201728036031983304 -1.0858697904043699278 2.0236069051521745621
1.0079869265265763989 -1.3534232549278490954 2.1386803985041749065
1.1210899096160578114 -1.0544841723870392869 2.0892326053938066188
1.2984103142204730386 -1.2577336555045650623 2.1984758097744716565
0.71549030344427777539 -1.0720957343393733296 1.8929438832364104961
0.74915390030573869584 -1.4947759102438231693 2.0655560980188720777
0.84054668307186442 -0.79510432166778943763 1.73051041738801481
1.5032511911879034017 -1.4532936474178226316 2.2575344431918886734
0.62720260122801296809 -1.2217633109815211334 1.9296956697592397845
0.45846483130891152458 -1.360980988696433247 1.9064494486033130016
0.2583708129370355655 -1.4237378737188270961 1.8432475641234045138
0.72886079838030193301 -0.86829358806888401467 1.6305907106856483146
0.61387356760788580612 -0.9883732097696743546 1.6881093634192416708
0.46541144804266909585 -1.094631154389968275 1.6442819018005092602
0.32539866200779365979 -1.226329661296039486 1.7249213280377411195
0.69916129450196451423 -0.90974703832514469681 1.4733597982130004489
0.63702927190187663697 -1.0284111753701512537 1.343261968556160646
0.71838365201490150813 -1.0910958008452584789 1.166259810548778697
0.92121193885363306109 -1.0404369930038479541 1.0060538247669765788
0.81058849247392594783 -0.86321434406519947924 1.3459265226561447637
0.97473446346042713628 -1.654953945585773134 2.1492178828722736661
0.70283280207923159999 -1.3428377203648520499 2.0154821421772233236
0.57633578308744370933 -1.4804175800670713592 1.99201635809826616
0.56505506230791746614 -1.6970933269104007124 1.9828715262168410405
1.7683727940930751288 -1.4842995555278732933 2.2457422285117676353
1.9970529947450781361 -1.3174669197818682509 2.1301196256143217767
0.5023413437797622505 -1.1081889112836746936 1.4037740235592426341
1.2761941032133021778 0.16967867090303923039 1.6702333684696792915
1.2345170978287245411 0.24432751245748762781 1.5146227552758118051
1.1727278723257601456 -0.89326299008235698906 2.0419874583986032945
1.3337222527939560646 -0.80706684796821259731 2.0580659781920993545
1.5400235179762544746 -0.91270313854671258902 2.1303337475752877062
1.4327036957024403829 -0.63245882372795214632 2.0074035804468186583
1.77913258094010307 -0.99258039137400533303 2.1336623336785272009
1.9691699580553063686 -0.85463404630094996772 1.9712619433099951571
0.44675577974509739221 1.136131811988024598 -1.4343437503352050033
0.38055359196473692585 1.1509419482878961993 -1.6270843381898634217
0.22273561240379197157 1.2910909904337033449 -1.7325022190509991038
0.043963065458152074394 1.2879672839292479747 -1.5957184914264730402
0.09264799788048680429 1.3664831844710751962 -1.3837492872468566407
-0.07874135955786244756 1.5299915544519651078 -1.2884005963771056891
0.29903224801615652106 1.3319765677787684943 -1.3105440994934156596
-0.1507057235257132366 1.2729173762583643192 -1.5172326939503155696
-0.35343681057067988238 1.1644571499167448714 -1.5850689171345484496
-0.14977251488241780097 1.3716489446026529642 -1.3583101841589970693
-0.29159610874815833359 1.4010385115764567576 -1.2606587982570798268
-0.23288830315258890469 1.5532512744542901206 -1.2328410364638755503
-0.33791223337533932147 1.6699283667522817343 -1.1900543781078447569
-0.39634879060084704516 1.8291561920139112196 -1.2793132350417433241
-0.27981761575331254299 1.8643574133840832285 -1.4612121684904053609
-0.56276497828110649824 1.9076811716253141427 -1.2486296073109379723
-0.6892676386224049212 2.0238536069043568943 -1.3963955242931451739
-0.45812684841285677972 1.6327381129231168799 -1.0975801914155729477
-0.59678680314891796588 1.6838383285021440994 -1.001418869279290913
-0.65419485973639091014 1.8319806535450537943 -1.0550016862574826959
-0.79336493522642492771 1.8953265961407932405 -0.9986802131717519293
-0.86222615017472659105 1.8401683814851641507 -0.86328852519644283525
-0.82099788223068181914 1.6818833656157006207 -0.79188915278377147722
-0.70593532460209373891 1.6016268762963303818 -0.88634768688914999935
-0.74915924080836915344 1.4233516165838600021 -0.88184862986014889152
-0.66704686597432727435 1.3100935215879192519 -1.0229844243675243476
-0.84134023419211112493 1.2268430596752850636 -0.91768355628826459025
-1.0031190629733133246 1.0284445234185004558 -0.93577194320237799818
-1.224379062779211047 1.0247166376639247343 -0.73411263366829304644
-0.87743224042842371535 1.3448678055353413541 -0.79677721860923833574
-0.98288699206020024857 1.8809473948206396621 -0.78988476934111417904
-1.0791459063980606281 1.8621732532516608316 -0.66578013968661853283
-0.10801536013300166994 1.7968702788598736042 -1.4224681430331802545
-0.15231960674220976215 1.8440048022038690867 -1.6029674699454654618
-1.1700568556315007474 1.2140506543773044168 -0.59247881470909213864
-1.208234397952433703 1.362253029658522463 -0.40600606732990474068
0.2869991469151166319 1.4390896710787277613 -1.8600230429310056213
0.050483464583375728396 1.4496116702448667013 -1.8011668186393594571
-0.53580749528801530079 1.3924192336337861686 -1.087025602119279899
-0.69673169247127597625 -1.3449995523172069145 -0.97276243172444054608
-0.64393844350926565667 -1.2411798042867232539 -1.0970687072143228136
-0.74156636997168212666 -1.0785373361396468628 -1.1548550327731148535
-0.56475805973130421833 -1.1648134201893445283 -1.2484678185119568727
-0.45056448560582768037 -1.107397745102652431 -1.507601849415957318
-0.91095122411572937438 -1.0286517998345672265 -1.0282293273824916202
-0.82804059556390086083 -0.90810871589166775042 -1.2559080885617908141
-0.75323603444853881594 -0.85023279114298200287 -1.503875606746672533
-1.0832599312294395322 -0.87908179127482599657 -1.0071783663564151112
-1.1919642853343577205 -0.68570454588619833558 -1.0998128545143039947
-1.1021665699232321423 -0.52788846854541704445 -1.377239091300574314
-1.4274203445045436922 -0.55479972683063272232 -1.0538576514843207566
-0.70337411940408345323 -0.94561347718651589389 -1.7583592285659528365
-1.6287869725716854763 -0.39491614119266060801 -1.1416243968732753267
-0.89803010067098765212 -0.75299948039077502226 -1.3828402833625925705
-0.71650260150302191864 -1.1284152069184334444 -1.9298132338814486531
-0.56002341677413147725 -1.3616756054672125575 -1.9554743995665277989
-0.78954988847784102202 -1.3128852373391051156 -2.0447408562027598045
-0.87196159438451747992 -0.9548560855922650914 -1.9192757973273797401
-0.98198911091428575659 -1.3270627610217780035 -2.1240068916726739801
-0.25108012917322786173 -1.2280114191247903932 -1.6324519284600238489
-1.1935661486299484757 -0.305259058424690366 -1.5897755593156326359
-1.3142339664804731925 -0.04810748455184876704 -1.4703127152217341234
-1.0737297521437094705 -0.5295411201347328678 -1.7195609167587084798
-0.95385969594735897648 -1.5070589223642412158 -2.1424845042173030762
-1.8249615351862100709 -0.52687420975142906787 -1.1621361090148674133
-1.9359352284910558151 -0.73787381667630735915 -1.11691559400104512
-1.8230974662403163222 -0.78568320196621554974 -0.92121886885271608847
-1.6191576550351083341 -0.75948240822265855599 -0.83723334820880057627
-1.4468767296113544951 -0.84635413431040218413 -0.77575361607399384578
-2.0511043272319486874 -0.90199714207613590489 -1.1866618285388637055
-2.1001176106535344168 -1.1104338141158029973 -1.0945908286279513177
-2.0221885184602581553 -1.1353027959036980921 -0.88331159727514740876
-0.35428245544773329101 -1.2969683664241478116 -1.8170896179549302918
-0.33533100837103213543 -1.4943943587184695954 -1.8935547563496000212
-0.50818872301092432586 -1.5521053133469295826 -1.9708646942363186039
-0.5731213901304008651 -1.7388628541794128868 -1.9748645516263054756
-0.75762106251920535716 -1.8080368888507356573 -2.031653694440637814
-1.8835713186349345438 -0.43867422440946096662 -1.3318900773929269743
-2.0481983190371502168 2.1206503179521334346 -1.4844169902073880429
-2.0184195866017522469 2.1256848007582442861 -1.367163133581063672
-1.2693387276892937887 2.2298900018176492921 1.5108333804948290702
0.14670483736927938945 1.6271635929949328503 -1.8401622826925250198
-1.1271854331297805896 -2.1901751751683282698 1.7039741102306396048
-1.005361735366506748 -2.1599160631760585538 1.646047073728710286
-2.1344683003178870351 0.92676490132323186 1.6348215841126907399
-2.067480308321081317 0.75412147142708685355 1.6634463594788311269
-1.9928315516745134239 0.59287413449916959163 1.7061938234308331452
-2.18698169079761362 1.0872016269850035552 1.569667729805305445
-2.1828480146073516721 1.1287855664785706455 1.391458327679419904
-2.231717433888144253 1.2992949771156017125 1.4590706331680116659
-0.053544900428920037816 1.6879136188311172351 -1.3153961371381148737
0.084317669291624028349 1.6506441009200820691 -1.2931852737520426189
0.24243120220300529155 1.6975946156867931514 -1.2573663958733551915
0.34972508883781849853 1.5573743224557337061 -1.1678055806496276947
0.050819043930474580573 1.5252896555693566949 -1.2937073285467524109
-0.019864568093770518242 1.4247684725724305554 -1.3440345622534914938
-0.030736928867090687612 1.3258786695960278479 -1.4517077841878427424
0.13448489523505535725 1.4452381747172784454 -1.3084338769950683012
0.2534930681534991459 1.4410316199806441073 -1.258826318552134893
0.40346756743463496608 1.3943734397122933277 -1.189270919470615695
0.21612202354928364278 1.7953534187050390614 -1.3642177388904006552
0.31830407898934676147 1.873512659992120577 -1.4423409635506558857
0.47541514490557185146 1.9204583280062590411 -1.3762094956567165749
0.44206098293393636389 1.9432872069596893727 -1.5495307042979011847
0.14699249401199154796 1.8279840527932569305 -1.4780802131771073604
0.0095935465378265364494 1.814727833072236729 -1.4943603894694648115
0.52807400110210922506 1.3464512976703697511 -1.1212612404851554082
0.62739247965638511584 1.2097892508322498628 -1.1403547926848502936
-1.7419097503339628918 -1.333044339757351926 -0.14738822069276472093
-1.7625224492274542687 -1.2515729906295463003 -0.33212600942050773956
-1.9185597024892475648 -1.2998834696804701938 -0.5353917770407753407
1.820481408590134631 0.70146081888941747007 -2.0004406636727374291
1.8131633297203695321 0.57405904275929575675 -1.9422549634049153244
1.6963964860025577686 0.48239226806806351222 -1.9470475843382317738
1.7655405129901169392 0.38638749920122150705 -1.8765484075062375258
1.7263832235121288061 0.20523153730749391088 -1.8230290587358588539
1.8744283424085494971 0.33124678995328249442 -1.7197802944924573954
-1.8719037099534654445 0.33766561157270591487 -1.4145574198777342012
-1.704917001406359045 0.346873831641721031 -1.2003761163501682763
-1.4477344351161181013 0.36145196776772275937 -1.190376051492274101
1.8340167017722475151 1.0593840043740692103 -0.6518333172083251581
1.9247590397857876621 1.0655033504527267052 -0.77012945194357484979
1.926112586451201647 0.92128201425331945895 -0.91586957964332782467
2.0155946755593840969 1.215517860958026386 -0.79947945607563486448
-1.7778172079675282902 2.0906616523205743263 0.87411908798314064128
-1.7731288351583944785 2.0127034230717764096 0.68397112323985909121
-1.6271854258072280253 1.9689790617523021954 0.50665915633564184706
-1.9120084147014331233 1.8569907436509931475 0.57329397334057363711
-2.0251175980069122673 1.7853585082716754151 0.72226294610635155546
-2.0643620502704860264 1.6153698689427733459 0.73602003666311710539
-1.2821334298120385942 0.34518306208279248004 -1.3263954368989838706
-1.3596771212471325807 0.15283491889128045238 -1.3688804704094448272
-1.4454104489617871643 -0.017158740439503963188 -1.3304585016254475427
-1.6592162291014060926 -0.046134007899843003375 -1.3022547860180844204
-1.8267948217234590835 -0.062087060171460206615 -1.5376569180852532881
-1.7591183993567773847 0.15199898235417408365 -1.3493034582159808554
-1.5204250471572720027 -0.2040177239290952016 -1.2517057593384841585
1.1654322575283866392 2.0480303701702609054 2.0410553768244263928
1.1821266614628203051 1.8642165738854203916 2.1649552362255684024
1.3192753764799831639 1.7358591721504927907 2.2297509953569703001
1.5213136497831751814 1.7271581486235130232 2.2549920539981624934
1.7343391646106571802 1.8797616538556578547 2.2071365292136020386
1.9136130911131714605 1.9803125812337016853 2.0956631647043262312
1.8945654609199209517 2.1306219696081623027 1.940695125151165934
1.7079049822509526635 2.2111407203348432127 1.8797653140991659182
2.0119979906675382608 2.1313040608629210126 1.7657113570197382479
2.1512483596221310123 1.9903321944229610541 1.7421866295888921439
2.22989185776387 1.8414570796978735334 1.6457213965198345118
2.2637685466442372118 1.5858943938693037534 1.5010387034366112768
2.2282660346294065334 1.8245506755802691767 1.438408413745401182
2.1792285027499334049 1.8508834906478435212 1.8754348274603667157
2.1791255892907761549 1.671846815408088549 1.9606456550735984479
2.2269685811400896647 1.5030478195198171409 1.8488962120118241916
2.0768355356317393934 1.8485708189194161033 2.0443905930462298315
1.9373993372060209772 1.805475713390755077 2.1659268307438490631
1.901650019761258914 1.6307355957298386162 2.2097469870191130958
2.1480597344083864897 1.9795197199590930381 1.347425551897600382
2.0241412716439053376 2.0970856740005001662 1.2676807746285816414
1.5445125206585299527 2.1684343108890367091 1.9861633650120840144
1.5272692784099981544 2.241201535879115081 1.8016625372313814779
1.6491786170473154982 2.2622680555723531093 1.6492723287759734063
1.7927527588538569869 2.2428396334123932299 1.5184970247219591322
1.4189028293747736331 2.065619103046527627 2.096459991479385554
1.5879392750051977146 1.9991515678173905624 2.1610612265406752286
1.3419331815984900658 2.228509525043412598 1.7650362045196361649
1.179929281808431929 2.1690103955611568232 1.8516900645609846165
2.2617189974254925389 1.5458426072252395844 1.6770238155519372469
2.2603731408208882492 1.6905601035575137381 1.6173817415023801214
1.9872192272345388098 2.073591917379043803 1.1093810022384287262
1.8823751528282985923 2.0883061279625017015 0.97541839684648923292
1.8670324348132576464 2.0345722670944055288 0.82830855648286028092
1.7347048666616213808 2.0261104032898256122 0.68675306499257793291
1.5787013890701300234 1.9872668503243542393 0.5457117164162367251
1.8974288022520906516 1.9350690797930769627 0.67296051922368527176
1.9264369620924923776 1.8067020747248478951 0.53535250196682493407
1.8293266310775735395 1.8276174662679571803 0.3858859378311661481
1.6607449953031501177 1.9129129953622776572 0.38258462047674657303
2.2086352921243515013 1.3250769898115040135 1.8332499202670464733
2.2008871879005287298 1.1861884744812483117 1.7353464583068869409
2.1577120299620013988 1.0008238853716036054 1.6554261819764393149
2.2135783328628093614 1.1877974061029450414 1.5607946713145790518
2.2417288641949451033 1.3551772213764006203 1.4615030848969972066
2.2442260186152349632 1.4930675445699834736 1.354534004392519142
2.2001292318777161405 1.52663335380380083 1.1396131332723136165
1.966929312372111216 2.1799907791430137571 1.5987741222944056307
2.0654166616779310317 2.1073649705345562921 1.4990124858694156007
2.0962627526304702386 2.0793717219959835241 1.639549662816201625
2.129380731984432007 1.5354947919800137068 2.0422489892541326739
2.0425360225340534193 1.416235895579296411 2.1159951285337763593
2.0564657489339221996 1.2608638873878610376 2.0663170524875114076
2.0641497396947570131 1.1054424950927130844 1.9972064463826493252
2.0049541012796447959 0.84553105118094862291 1.9250060367267411987
1.9434508396676002384 0.9715547885517213933 2.0499527517192350778
1.8040061475783055744 1.0412287895017808825 2.142881724625162132
1.8020080368518578418 1.2115320658116581765 2.192682344918038595
2.1433054684197165862 1.2297913068134604941 1.9393986992568470473
1.9458472805490856228 1.3075694417225010024 2.1589853746062823703
1.9996184210662422132 1.5428114522878588755 2.160018690760936888
2.1000966940006446926 0.91231811062594192485 1.794592966739355866
2.0426968208368854185 0.77490003080954317216 1.7993560960878767219
2.0110972532277759939 0.63619676247059331331 1.7081032738690127282
1.9417652964553244743 0.69344295532590061182 1.9031726742951866616
1.7886828723239467376 0.5856298053418343974 1.9607740783209233193
1.9519073106203030932 0.47931474914958521749 1.6681715194625212906
1.90027254454337724 0.33595296876802793751 1.5391217281732487709
1.7978423901390496731 0.42199427897237173912 1.8738180589388244712
1.664359613992705933 0.30291400467710111188 1.8809533174701729141
1.6269253908004710496 0.62828140720406400188 2.0198920980654109236
1.5540175003516742969 0.79212588358631275121 2.0865639678819096758
1.8936691996847951902 0.4148840209908974952 1.3809414299754156907
1.9540657745091800646 0.60689159989056074007 1.297226662423135668
1.7698082244112125494 0.26226065848098828459 1.3039690161779411426
1.7230928983391502474 0.074304304748220320609 1.3369975611582534114
1.8955852544272904225 0.78966125638829542943 1.9986484998598392782
1.6257025006121472721 0.18688473071241418211 1.2555584147222560443
1.4772272571813447328 0.23176711689942949834 1.253039842477555732
1.4200850859565083972 0.34998458461313375345 1.2118546031402319674
-0.45905297017948881733 1.9451066075930918409 1.6580269814600816503
-0.55811154024025866338 1.985008640540559588 1.4854583184119780626
-0.46607308036744876656 1.8766120635488470203 1.2908379446986038008
-0.55540521609841531081 1.7942093737559940969 1.1060217883746918943
-0.54412892838882109814 1.5829149264256372476 1.0263454270832472748
-0.40383664053617684964 1.4718009526477839888 1.1516827985486000063
-0.20026212452252534213 1.5446109715115623473 1.2485137345592765001
-0.21303462403510908807 1.7702455511656742804 1.3329205315472518745
-0.70142666598214942209 1.5258049570933496231 0.89469328435913819675
-0.86792374496610713575 1.5714898522328311081 0.72501289909469190942
-1.007123781562115683 1.3616833803928694024 0.648221441274342558
-1.0061757963733082288 1.6764771420218569364 0.5880518303693846871
-1.1947104335166587319 1.7695885995134497115 0.41960387706636792515
-1.22062120416806974 1.5866105391611169395 0.25486799142888788561
-1.2609757184694110332 1.3453475830149710379 0.3519947543569595938
-1.395813147352405803 1.1677767781247252454 0.4313126136456321702
-0.085278949987447005832 1.3972007908761530093 1.3563007175593584375
0.099352506885274166626 1.336603548777204109 1.417714320663136629
0.12058441782210183035 1.2733464845415343181 1.588689352672847388
0.17941111378308208235 1.350801091863840897 1.7707267828650148367
0.40155116877054947144 1.2982440899913101351 1.8449165090283667912
0.30534006241120598135 1.4912418630768480288 1.8814370078454960566
-0.0034407852158246407352 1.3396404363387000025 1.7175635740547106067
0.25632939545313782048 1.2401413739018118942 1.4784742293996457896
0.41337504428246707455 1.1948320033038546395 1.3738471317804061833
0.42250630664918076285 1.119572361693410345 1.554870316199434388
0.5719367330088397372 1.0041654020063015551 1.5998270285242310873
0.75157104083974402009 0.8785233399717953251 1.7226460329993360521
0.60473959626796414124 1.2393188868073712339 1.9262689223984956755
0.5518333001493609391 1.1605815495904798773 1.2670376622676842171
0.67823246018908955879 1.0277788416356969936 1.2887336877343882335
0.68433409055010796518 0.92935021608357881728 1.4558661235552694535
0.80876498564149590376 0.87456774497383427125 1.330649852040529213
0.95787923405716790537 0.82726148123997456096 1.1949782890741824648
0.43572884998070693374 1.1557831991829774498 1.7343313045650274873
0.23246840180380179408 1.6766996700592735614 1.8528183336670518422
0.42158113706254418673 1.6536900652361254949 1.9301693275294009577
0.055353478248432216868 1.7116729222084892115 1.7967737246662880413
-0.10424130172127507588 1.5842844745623103631 1.8353195764605689799
0.071363397800302819096 1.8211016152048484784 1.6561145319152619226
0.21617201076730871434 1.8591337097545201917 1.5395894161493752783
0.14552410639633756029 1.7610787880569263031 1.3541966257296171872
-0.16855308010958131026 1.2811983326521056981 1.6801037680744512759
-0.25474461351091076677 1.2359981842233209726 1.4920965747691561365
-0.31690805717611003622 1.2619750218562457711 1.7627173855894870957
-0.4959482125183059531 1.1739344414521162285 1.8114864931677991944
-0.38546369240070982309 1.3821548649736037362 1.880406857952724442
-0.29440266661561542705 1.5414889781814307135 1.8851562023515950894
-1.3244936718688757882 1.7783115930075665823 0.24430231537970201194
-1.5737860796861022905 1.8322926829046466413 0.08431865596000974461
-2.1408450381852168753 0.94225444215531029002 -1.6142431421363443445
-2.08821578083930115 0.81923088766345686373 -1.456539829474500447
-1.9982578895179308187 0.68015940771905281093 -1.3210081530605028988
-1.9466361758618240252 0.75157069731869896589 -1.1215805683878206089
-2.0797496077683694793 0.77704961793191440478 -1.6278890670846062338
-2.0003702490021497695 0.66786113165047966689 -1.7861958146019918381
-0.21827334877989040818 -1.7464864950849352532 -1.8154187550130236328
-0.064023862587906238408 -1.7476567376088185668 1.3627815244822683027
0.025476505289397329002 -1.8222051438343944696 1.5252522426319781168
0.10759875872142649067 -1.7439198815624570305 1.3484217799135864713
0.25807931018062468809 -1.8426615337889251656 1.42257604732005416
0.41413152325745555826 -1.8501980373430422233 1.2953611464160577071
0.52018906671632725303 -1.952768245949590975 1.4124549639483843233
0.67361848948632985223 -2.0089041427951186414 1.3652728866848498068
0.84071158293075554102 -2.0837091400363889626 1.3838927637977920249
0.76042548521172326215 -1.991906501517426431 1.2041148647054054077
0.8793789216714819057 -1.9874458839334454563 1.0648444851425216129
1.1073478484723160431 -2.0838494202040966918 1.0534331838685915272
0.67925730282895768752 -1.880109735401860549 1.0896242456849527525
0.5318427175641562421 -1.8030234780979625953 1.1346300916407336956
1.004211412833795336 -1.99813952871927758 0.95898351868782039098
1.325045326430010606 -2.1587849344867668933 1.0886242578546296844
0.47621095305772215278 1.1489510790071315594 -1.7676844191262093275
1.1142193783699663179 0.45206697680897911518 -1.4798099932895465436
1.4131441886042610534 1.7841844266804864905 0.063196670401527543781
1.5211041015214081806 1.8405182908475701264 0.15681414703977017422
1.4063763006310496806 1.8083007744633035063 0.18249739744171591949
1.6347129837369187566 1.8253493981316131212 0.065967312834230351637
1.7595926040877953866 1.7598313114337635898 0.048645141557733376225
1.8193189116040360265 1.6473104325763257005 -0.017925931189849492881
1.8433697947870251177 1.6458387441290558417 -0.17373825585214333622
1.8257729466385224093 1.6956873475714795418 0.16508560483646061989
1.8183150121363949037 1.5052454532395791453 -0.031426044659273212611
1.6246355947848911683 1.8694034789754787607 0.25008875581494310891
1.7403772379352087096 1.8510246287090550421 0.29856860696407105937
1.8285467234983918683 1.7621396170290588579 0.27702574610281777145
1.7818467135685551739 1.4013691742996277068 -0.092892086814700708386
1.7141982021447030871 1.3184288408019380068 -0.12060765875474868669
1.6123338966985714116 1.2875750877108207426 -0.061898077860424262353
1.6223011283845174546 1.2891266883767296125 0.06309184758591285247
1.8010752862017189724 1.3825930568576758617 -0.20061066289766144033
1.8649063058440544793 1.4478515505082811821 -0.2920664924396272899
1.8731483303018119368 1.5621468575198551587 -0.25504525086553159197
1.7173661537693460932 1.3275626133969593567 0.095935816638864690464
1.7820572099633278373 1.4130101458425576855 0.044778264347956051039
1.7322090467830477678 1.3070367263183904072 0.18896497145384552607
1.8185893024034613941 1.4673248367195137476 0.12022526890325180293
2.1044665322272075869 -1.3349501632835674148 0.92328208354437335537
2.1515170285107818593 -1.2389111977059874548 1.1318349509433660582
2.222413125122049582 -1.3809442499469810617 1.3016691584391992809
2.2116224495085794466 -1.2125175528394023239 1.4443417248593055646
2.2116351512684686575 -1.2182316508401576094 1.7165633127306798578
2.1755572981383717313 -1.3228170715771787602 1.9192582631820152006
2.1147928330069847291 -1.4641877814257935331 2.0524599945198587214
2.1270493760512643178 -1.6707998837053927854 2.0404517556551660107
2.038145800382394679 -1.8562497745468373722 2.0789535686319777774
2.2069301375684218236 -1.7502456400610504339 1.8725915647471678138
2.2063869324665557059 -1.8923832532786601934 1.7076386082691097368
1.9792564924139295357 -2.0342105139230888255 2.0006429642751792919
2.0404449522438343756 -2.094626647527894292 1.8132198794664406982
1.9760724401198033195 -1.4974035094154622971 2.1715807398393800476
2.2412235654686827324 -1.4124705779670208017 1.7531473956401379954
2.0958978295680150694 -2.0788686488539189767 1.6495014304525255078
2.0322981169945557589 -2.1345842077505818857 1.4994477337091947078
1.8669769342200324136 -2.2199610758980425906 1.4876666548227848175
2.0992078027020517617 -2.0526011284468075324 1.3725335281561035217
2.1996035131505977667 -1.8739229663371894663 1.34995170777551321
2.2337577543970570382 -1.8292695572583805852 1.5204390513197407753
1.8109694377747473926 -2.2389351433613171594 1.6331673343837376233
1.8666733220750271194 -2.201072748164355275 1.7874683266377444646
1.707429286957511394 -2.2285318528993798282 1.8257709463202966838
1.5670781105433719826 -2.2472221921628392494 1.7797384938461271453
1.5005507755404496884 -2.2624961996816934651 1.6347770193618105239
1.8773222215433256199 -1.3824975210382388635 2.2037980444119167345
1.8731264066004018609 -1.2252865516290889492 2.1729163070786468026
2.001098722284166076 -1.1480123255410663585 2.0769443358304329195
2.0916357671794689743 -1.2587632658338472336 2.0276442189566696861
-1.1835987353377130926 1.5449672309022433048 -0.32622574435647627711
-1.2725939230638139144 1.6541765372263452782 -0.16237029108458411741
-1.4414192008473956097 1.8056308663211679821 -0.10633435639445362741
-1.2263409996476166697 1.7287357400176672773 -0.32943207306724681116
1.3374130170176490306 0.32388929000626409671 -1.2879642472608687775
2.1263621696210690537 -1.9672303730071338812 1.2273951045128272952
2.1860427305752230254 -1.7991968504790707417 1.182481058523767059
2.0250153696212938037 -2.0804990603099708935 1.2157324819094537105
1.9155934253507937992 -2.1141099882894782702 1.0930760070395160177
1.9493969045173522581 -2.0361408465343062701 0.95019798837361513222
1.9676305901306503365 -1.9498748571836688193 0.81441459050148767851
2.0595931528165691837 -1.9129317076835541389 0.9467537700540673562
1.8724017595422361993 -2.1733899088706323255 1.2260302568333809603
2.1247034373279256592 -1.8831538079400036434 1.0766762793800050968
-1.85466175392894983 -1.5865052917836768298 -0.19226240133257757603
0.7990040803674720582 2.0885820658916780523 -1.5396135366138963274
0.76803376104704013105 2.0660767134903781361 -1.7076916089778368946
-0.15939151519524555334 1.5049000367999187944 -1.8379558687589228061
-0.33700570317687761346 1.3526923231185914442 -1.8432703016407181451
-0.55104388246968249998 1.3186135350496612784 -1.9348375629223677485
-0.21940060810567765803 1.6883804865837630516 -1.8447238636430793868
-0.40904255016758700458 1.7805205293626678031 -1.8786286245787158222
-0.49155392271747183619 1.9218800093024481779 -1.7753658469808109022
-0.50304529385775131889 1.9692803390328150748 -1.5958168744380551995
-0.64110693697532161739 1.9427204225103653634 -1.8657853020967067881
-0.7349404492652201748 1.2862453321878737356 -2.0117751837593034203
-0.64263150489437426138 2.0266474646023198147 -1.5477369870991328771
1.4484172851757359801 -0.20830011543567641952 1.2775058875437443895
1.3746724632155309376 -0.35582701486849904748 1.2361624073572075044
1.2133657918814326759 -0.43595482122921802581 1.324035710154225054
1.4255942277717226219 -0.46127192706042419168 1.1292986051917199841
1.4050526089071460056 -0.62213194053812204132 1.0068508965954339196
1.5913620857156707267 -0.48523302572095239338 1.0726795843048626544
1.4363519221853260355 -0.7589080547982554048 0.8669125301985118881
1.6241689940174945939 -0.80395219938813555771 0.79405890911816645605
1.6765908640262647822 -0.39237328653272929291 1.1568795847249995212
1.7433753196558792187 -0.7372739917702025858 0.90404637700228396291
1.7058837871829464206 -0.92558710259754783944 0.69262877994006766258
1.8837654494310707154 -1.0590557519576391243 0.71582916776363569866
1.6441241928375267545 -1.0263719111640114967 0.5526450332683290334
1.5933820004895407063 -1.1338132482386873434 0.40054392168156299769
1.7419436604716260764 -1.2547624516389106475 0.30011496599694592602
1.8559820975684639954 -1.4198607704135577379 0.29468318209316957113
1.8418975858610873164 -1.5896262585295657388 0.13987077269131412138
1.8145805424623699942 -1.4918137065537770969 -0.027293907373569313568
1.8391299836470837992 -1.4101934217031335539 -0.26263260104170277343
1.7106780400848045076 -1.3293022499693993854 -0.061761914568536052661
1.454853404139403894 -1.3167665191512318845 -0.082453001266890091348
1.3981933808190754043 -1.2300584813983337362 -0.34200817634961444558
1.6105670713034598851 -1.0941539708044993873 -0.45832338856456722453
1.8009427457587665611 -1.2322804363688171225 -0.41096899591866947743
1.9154663694810427632 -1.5816166463292713473 -0.37023909620491846084
1.8692385662510238031 -1.787786665081870785 -0.39957628071485284948
1.6285939763836916327 -1.2878179066886132897 0.079253069798230116327
1.4917583559401854654 -1.3042472392240525014 0.052433881100551381349
1.364757280819599794 -1.3639113820152262146 0.15240647641255197775
1.2736685088472881056 -1.5319594189001419782 0.13730933302222333992
1.3715645176080453194 -1.2754415050609901883 0.30123966013802516706
1.3822262038714661081 -1.3802583493397500014 0.016383627785569010449
1.344259940822215782 -1.3997836239348000476 -0.12055325401199530611
1.2447410958445674911 -1.5085388044030407784 -0.22655148654887449777
1.3988411724261502478 -1.3045097650383083998 -0.21657612949339424824
1.2941103444608059725 -1.3346466285826785736 -0.31873654678424306885
1.2226360764082395693 -1.270454519297353313 -0.47915868724921772959
1.1173457553368462136 -1.2147904922953698392 -0.6465750811397100728
0.97255613410323671353 -1.2062445912314208041 -0.80283528863747766202
0.95242054776685414197 -1.0387868193022931074 -0.97614204673490923003
1.1600435449929360487 -1.6139377767634652816 -0.36355467084048631587
1.0628508079373466533 -1.5116124812499360797 -0.50808021100500178058
1.5135745906220641199 -1.2284740871567814136 -0.25685032955095371543
1.512998093763752161 -1.1567418565283724696 -0.37816306810170380315
1.446512537222310435 -1.0748399338772669509 -0.51903292028504444122
1.3735026354186963271 -0.98495364882497316028 -0.665238617239101937
1.2073770964058474497 -1.0465011726778825629 -0.7263943090023999849
1.6492444782185324836 -1.1752962399976765173 -0.35070774004594917894
1.5811695205052238578 -1.2871893905840521288 -0.046685142945420775307
1.5761401354666184638 -0.99065459215266171711 -0.58745301197654486991
1.1662380318929768119 -1.7706872243976652381 -0.45756471509282248267
1.3690063014068998282 -1.9180130257725893639 -0.47591210854061649638
1.1238093403038531548 -1.8607151550297078568 -0.6165660961795513817
0.97251179427807565858 -1.8031934662346822407 -0.71246463902829626491
0.93819295794386892151 -1.5575786402819733478 -0.64911219995230073909
0.84079545184869219909 -1.4459679163668124335 -0.78180310630388705206
1.5808034845350147357 -0.88874639519249287734 -0.7025994430066079266
1.5836944589012160733 -0.77599402079385171316 -0.818657653859926282
1.4407607002918516592 -0.73597477103210084959 -0.8870346444683631093
1.3006774294921070734 -0.83898235561033385199 -0.86466519865030588843
1.1775360509562287081 -0.80696859914983676276 -0.99296943636969847713
0.85155449660751802998 -1.8018619782273248564 -0.83627582567114089329
0.71445981982891237916 -1.7320839685415887477 -0.9188189171725087423
0.69062393786781595129 -1.5678366806870789318 -0.90008962749966037187
0.65008969852190423566 -1.3730428537509473674 -0.99890607523674701529
1.2716857678464998926 -1.2574992424636810551 0.4382341322965020991
0.68757479578746050208 -1.2039732760446872906 -1.0872473154243029736
1.6018313933436858498 -0.67457582348795952498 -0.91515995102305147668
1.7254695137675217786 -0.62599138464363135448 -0.9953356345655283155
1.8452797192629091239 -0.73274095164285446558 -0.9954787897208875469
1.9544810929776894604 -0.86449179031403067253 -1.0190973662579152492
2.0311897172761268493 -0.86811387892158164981 -1.1742070862664113484
2.127546161457556817 -1.0075453667457836548 -1.3041622151483804881
1.83900300860875765 -0.61261016405994972445 -1.1011086355162511552
2.0095273563066178291 -0.73978301197537832401 -1.2735906829379972649
2.0094341116670459968 -0.62619498978330434547 -1.4571443263991079586
2.1500882293661907063 -0.97787590628205400822 -1.5015678657079936098
2.2045770922208811626 -1.1518891123558177014 -1.562727388955238661
1.6110772257476955183 -0.54927524942692873555 -1.0237093497209237558
1.5925838016432498634 -0.423867368949553458 -1.1176376840635924292
1.485606595705308175 -0.50484999600377888918 -1.0721950297134321684
1.3698992811422718852 -0.59015237701034994888 -1.0536663241212105291
2.149593087034726846 -1.164757827793777345 -1.1957732923878596765
1.8358464093828568142 -0.82993636709555984599 -0.89080104034918772271
1.7284017438467789152 -0.84987970781147326171 -0.78438704821259874755
1.8273779841504900201 -0.94914582794215707207 -0.76124005392211757659
1.9275228464296276787 -1.0656750529617862178 -0.77433469871217519565
1.8288164315642758684 -1.0553011034201411622 -0.65022953184873122368
1.7125153144277116546 -1.0475434757434194388 -0.55693439520280096922
1.8196305888688255603 -1.1496442618491493626 -0.53437556243208184092
1.892238956569728181 -1.2709409303281398174 -0.51381767860422011829
1.9797705583361737691 -1.3358522857836310216 -0.6299845959991861033
2.0148142756052287439 -1.516698032189046863 -0.61953923296976409762
2.0095186753768703447 -1.2581057943243689756 -0.75190237980317509159
2.0802718550196250824 -1.3094761223867223965 -0.87740199891941528243
2.0479519643546297836 -1.661158141553748635 -0.70486299260943274803
1.828921883462742759 -0.50363346243058215723 -1.1870772884005882375
1.8709949946210975291 -1.3377486779435727726 -0.40835138844618573684
1.9042234536369799791 -1.4566549528617172005 -0.38274885980521861084
1.8791088331613585716 -1.5130292632552497789 -0.28787149875431378154
1.8367425644728410106 -1.4984977373303662862 -0.16040380996244302247
1.8752250002970412002 -1.630382431777354757 -0.26963034762846543879
1.8275324255277745067 -1.7323066525419275052 -0.22757684779706771616
1.7669762242032844846 -1.759864171172032643 -0.09356080385751952555
1.8161048380267907909 -1.6586824366719232771 0.0076957594506310254834
1.8967888403844166412 -1.6892799143914363214 -0.35972408834195329641
1.9431635455005094038 -1.6503273587263351807 -0.45154266354612337953
1.9557581668812493714 -1.5278633761897144616 -0.47634439480772766684
1.7230180213317247695 -1.1426036050966363877 -0.44392079626642177992
1.787749087566552042 -1.4072334686623315658 -0.10457602413705058275
1.7431560688568712436 -1.3195035308728586543 -0.18283520250984894306
1.7566207037119303536 -1.2686234348383451653 -0.29803120941095218033
1.7691629269094113486 -1.3961827328399811776 0.0035538063926336600253
1.7058968543727521805 -1.3290350967942523575 0.035876242601706236079
1.703551155246747939 -1.3099667703848842937 0.12372956291034482856
1.6235158168857684036 -1.2510007584484850174 0.19706265355918164972
1.7604133575888241126 -1.3205954478066783686 0.21568911316630826058
1.5474725517482013082 -1.2014237652520840527 0.29496608691134529323
1.811647036664117083 -1.3287394345110943306 0.30314848957483925274
1.817194659019539138 -1.2490872734218279039 0.41376575810841986769
1.9060851052551179841 -1.2285159272038035372 0.57936237804827328546
1.8732730063368283613 -1.3633654029994801693 0.38786805463019896623
1.9152694692647544983 -1.490054729592727556 0.39156116239932853285
1.9752430078607510211 -1.5250555322728596153 0.52342321901236754655
2.0024160574084861608 -1.3945831314854171268 0.64131621697860374809
1.8802589667273292839 -1.5482828050095085448 0.27878690611115214404
1.8586028404730576824 -1.6616779202349836186 0.23760824900526900105
1.830116839270435225 -1.7873243608281463857 0.32071881732044321689
1.809440787724940547 -1.7125067464866106093 0.13168575072530308567
1.7321316519894272012 -1.8131156901878235921 0.18516773807664152485
1.5917676026190255012 -1.8587219993297343645 0.20722917510830124455
1.5589161415061301152 -1.9070834505185318974 0.35002008709162762967
1.686688236633255622 -1.9432536683879191308 0.46813397130484951658
1.4688800802310308935 -1.947909027620953859 0.47854055897980335432
1.905871818634853776 -1.7711085716272776391 0.45391710599418777505
1.8072786527102360221 -1.8729848220140730142 0.43326481842943570522
1.607107701435350755 -1.829613027309507256 0.070863589247424640938
1.8830931992576451783 -1.302485773623909715 0.46629089656863470514
1.9348844465142629456 -1.3198009252731544017 0.55015539023348980496
1.9687044579935510935 -1.2849900445445898711 0.64615924461963158976
1.9365842483477631042 -1.1814851688773513327 0.67715662537444176738
1.9735844935101491959 -1.1246266301594243231 0.79688827660471861503
1.9236599896495569784 -0.98574317876077222067 0.84774118149039834336
1.9174899280350252706 -0.85494366153247125517 0.96919988783487254214
1.8504503409131671798 -1.1182952611405341248 0.60866833001239184497
2.0485747781124290512 -1.2177256487094885173 0.87026963854515893004
2.1014243316573515408 -1.2171430869778816497 1.0014149464906132447
2.0998237633715581829 -1.1071231460148585057 1.0970395121662155358
2.0597673407042838001 -0.93063075355183000337 1.1768185327253801731
2.0972867491805491369 -0.87426783931748630607 1.3867506474135917749
1.7844014262396672432 -1.0160222597364447772 0.64779787554096013302
1.5049750152611971465 -1.8174107556090213222 -0.0023456962779086752181
1.4441903953397758897 -1.8064681986015902471 -0.1043445814145993189
1.4793481701792345895 -1.8584061691238322744 -0.24915501682409582629
1.3453956385048655431 -1.7718424991240113719 -0.19298936352541112837
1.2732759381014384648 -1.6406430901974620173 -0.14796330189751133455
1.6612146873515014622 -1.816885120396648956 -0.042729972282235559322
1.9555434819439341254 -1.6501268121773957631 0.48095167681488310008
1.3687447440586137937 -1.833274533391029637 -0.29714752196548938068
1.4555523261939919966 -1.9004096215820034388 -0.37433523702276838563
1.5440392795088069278 -1.977647736774225562 -0.52552632610864669083
1.2954042935147997984 -1.8433305704732458885 -0.40195451214960808972
1.238573709646361598 -1.8828405539107637701 -0.52992470523188517362
1.4032401517473960251 -1.9985746095760672514 -0.62770099500056841801
1.3684298866974435871 -2.0564734976876319905 -0.78194690907283936898
1.1990390475255947589 -2.0441825208449757589 -0.87574683223474758531
1.7073321259077283152 -1.9410387069933743298 -0.47543333490107203554
1.67547447196647048 -2.0123501333812066072 -0.62404239085632884354
1.9639462471884283623 -1.7754539687571258 0.57965172744279314099
1.9551091868751320213 -1.8802756283231898404 0.68411621871871597378
1.8282408714709450503 -1.9840219296370162905 0.67541722335321563442
1.6964117595029841734 -2.0580908351541311596 0.743010378097037405
1.6858728382992285155 -2.1323822759089003931 0.93510463727925818844
1.5287762809751770376 -2.0684237107375329501 0.74881337264581326885
1.3616708156136951846 -2.0373985610656828449 0.74082927025723632752
1.2643605988681660968 -2.0675398621151002132 0.8783293033439729669
1.2240777367872839321 -1.9653737763476883948 0.69114149935816449055
1.8261706616348816201 -2.1128476667653166565 0.97589651501823937441
1.2254177237133334621 -1.8958924808207864299 0.56504317012870364234
2.0255757553737234744 -1.5231869408060039195 0.64402916565621914913
2.0622069435626353417 -1.6267112893489630299 0.73221857867542128329
2.0607351000062821278 -1.4481425430059882142 0.75290696687517211227
2.1031284513406798276 -1.6860372171847077816 0.85421273154795351878
1.5384317169556152027 -2.0319975239167966663 -0.65691001269449922351
1.6539614778014213314 -1.1915362104195517112 0.32674755662585819316
1.7375316246673335741 -1.1969690032838169458 0.38203021970222045267
-1.0744495774703315405 1.8391161062536842685 0.64165060851822353083
-1.0508922600031709305 1.9297071822335063462 0.79242664634451065453
-0.92152143311846423934 1.9001192420851145126 0.87768486066543560664
-0.78143413908795056333 1.8827578636881741048 0.9935484260551050717
-0.81482737745628452952 1.7845703759859419257 0.85816941188729056744
-0.75938534333825269407 1.6499266054361900746 0.84306451073945520847
-1.1656284858438019647 2.0120728818885775802 0.83504812076593160075
0.4083018606525551375 -1.7527469690252746037 1.1893024665129316997
0.33066511375993123956 -1.6195245175547996475 1.1813654201686780709
0.41969615594790077306 -1.5042331616200002031 1.1304671233972620747
0.54113564080368470322 -1.5334210001323516082 1.0324818206408332699
0.41855313966941498638 -1.3658533675800850204 1.1962524685687274673
0.30763172239374059203 -1.3236505432442022823 1.3123667294072713929
0.12637088523047160238 -1.4238429597480335431 1.3244727168341372536
0.1865746396231026949 -1.5771542540950396205 1.2513298417029989906
-0.055552202210635767687 -1.4411988880184873896 1.3294786496679529275
-1.6128466593815422581 -1.9027490336480643585 0.34031836762158990117
-1.7517659993890517534 -1.8932049995815898313 0.4065102399236023567
-1.8409742076774122665 -1.7851406498966533309 0.33926106751104684323
-1.8109385873329524319 -1.7386895870511758222 0.19106179864031191951
-1.6930130477104525788 -1.8131869146046173391 0.1045730847629657706
-1.831650457849445468 -1.6138816778141238384 0.091586071585327208378
-1.8340733522970427138 -1.4834039794656637135 0.16531371517451742825
-1.745912847937066914 -1.3484371617933246235 0.11440749153933646443
-1.8283719710194956676 -1.5970610164060581315 -0.051234581324979516781
-1.8215808184715920337 -1.4783764457018071514 -0.1169765554427306814
-1.8730389537772382802 -1.4802057741669907287 0.2895237868397790848
-1.4942346235099885909 -1.8911112231783475668 0.3291160049930265119
-1.7533006442878853459 -0.61050951111822449047 -1.9868209978025606066
-1.5815032736888292586 -0.62542948470342074607 -2.0204019793367153923
-1.5153182631456856289 -0.75822467712576702148 -2.0711220780992776191
-1.3542167992268525634 -0.810238378230177414 -2.0646743450535276487
-1.2328833008430892804 -0.70217783930686006322 -1.9750025693774406754
-1.0492283098015606768 -0.69374109084150192839 -1.8594927183303855411
-1.2389138514215993769 -0.9543764200268665121 -2.0902132107770525771
-1.5835592043933335304 -0.90308513348236940654 -2.1279000339106435291
-1.5414182242742360263 -1.0570812391258863627 -2.1774351206571180839
-1.7832699065672503735 -0.46504380201593470412 -1.9046963834256487313
-1.6860057527169871605 -0.32500659642332191401 -1.8837773089264979731
-1.6471824592762882578 -0.10782172746742253733 -1.8286925389353521076
-1.4789685464374795476 -0.33124351777809490915 -1.8886915125368268775
-1.3176346247225023678 -0.22959252540181351865 -1.7647309163823787781
-1.6255728979997035033 -1.2370530291968997449 -0.22951939899778708853
-1.5194066966183126244 -1.2840545916238326196 -0.11075701585556987916
-1.446303408051400341 -1.3290406147224449462 0.03123093117150112924
-1.3974876562557738691 -1.3302406011956142695 -0.16341568836388567498
-1.5199578743760462363 -1.2765771119351012608 0.13701186736747714146
-1.4932971281896261218 -1.2363108778071505434 0.25335288812971595851
-1.3737089378734528289 -1.2511698145143230754 0.33517788958727939841
-1.2760514432733092161 -1.2131197775222652968 0.48421237789335563884
-1.1372703429542558862 -1.3431351196211802623 0.5116339687336607378
-1.5447362733453127159 -1.1680383704588597205 0.35156936418220363638
-1.6188733404981852093 -1.0215531016718990553 0.55304946978177849104
-1.5493801250088099497 -1.0916578371051739449 0.4619590786296874918
-1.4142475477418232632 -1.0543329971891144403 0.56160436952780423692
-1.6818960127884843292 -1.1036006281804475737 0.46908399268430051032
-1.8258969271573051163 -1.0997594628453197796 0.59813910193763741852
-1.9471171998860201668 -1.1543913088824691027 0.72120601099464698436
-1.5067519032538725376 -0.95559853587920740026 0.63823541895470359275
-1.691777830418542905 -0.90912292898332303093 0.70387019528949668068
-1.8017658991406400038 -0.82973646622145247331 0.85797477407837419161
-1.4664161921009295497 -0.85940355357177844464 0.7549414048595851634
-1.3891236198350767062 -0.75993902471081353767 0.88805489358731970473
-1.2974845558301153492 -0.66880011329750677085 1.0302259740521275688
-1.119699836236660806 -0.74890031514557653392 1.1048723005098817218
-1.9478146529999849079 -0.94304189669858207168 0.92872028635855419232
-1.6444075850433783614 -1.2743008700255058496 0.14817476128666359769
-1.7290528111048677484 -1.2787879329311633292 0.24117324301743209292
-1.8930513753068449745 -1.2428703593925090054 0.54289824945070008777
-1.7023715869533992961 -0.69472880327840402792 0.92206525387013771322
-1.7284924559924428333 -1.0531837170421138872 0.56051415384942882003
-1.7814791039303139453 -1.0003310167907646377 0.66248908311906151702
-1.6858480615011823822 -0.97958683353540054739 0.6229778302764533704
-1.6035659877616195157 -0.93053696083176562492 0.65763644725661951629
-1.5951242124542657219 -0.84691993088229500231 0.7472422371842067923
-1.6858370338189481163 -0.79499448559621888055 0.81941223518007633153
-1.959784475597735387 -0.83632719242938535764 1.0572768935309986293
-1.3267514741533128486 -0.54065506368329219189 1.1240619706673495859
-1.3518728650292968219 -1.395107173043900417 0.10851080863626241801
-1.2937624500173046105 -1.3960942007302190593 0.24059766398721818548
-1.2314475464597700594 -1.4994439565358028688 0.25890985116728953974
-1.1603260261645484963 -1.5523591597726700275 0.36228603196256953245
-1.1235748882471663368 -1.4593537348460288161 0.44932601249486869843
-1.281808040542548488 -1.3299172083336996408 0.34141178072567768265
1.8770145900286738794 -0.63129394016115925048 1.9285733750461324654
